10.199108921797198,-0.22321381662385334,187.10726239248785
94.42553495599128,1.6685745077341883,-130.7195843701023
-99.74279898919939,-0.15516039325088316,15.51127946816219
-170.66663804675457,1.886497728641018,-80.21591203604873
-33.54715261103254,0.04842650740485928,-34.643042464642235
-56.04368487533824,-0.39617530766124354,-80.02098707140797
-116.3651784812313,-0.14847106136400762,70.16495299888308
87.39364528803655,1.0373845001449336,59.27611269929655
2.516425269362314,-2.1621098686275118,-3.176748247750987
-129.59413944165118,-1.2393166441739443,-33.735135121746445
129.24767867081633,0.3116495432064364,-60.55362644997556
55.72932901585557,-1.428043167973927,31.270728301420377
91.4605801413829,-1.4101518042630985,144.59928456578712
75.96914881054005,1.3788011337044206,-108.86168096403293
-21.049072661243105,0.19310856931966522,-217.34627757040275
146.7682191863092,-0.01862558351526154,27.789625007047487
53.688985757180696,0.42894170852717456,84.69954358077493
32.84300180375154,-0.788541576009208,200.18158391694212
-121.96348548725081,-0.29369272742899105,-110.0278569830586
113.22100382489424,2.4564612110093456,-206.464802742104
-11.762614949090354,0.7164593427011325,2.0390133970314483
-11.997150066122748,1.5603779025143962,69.28993764664527
38.110174191712964,-0.20832520093933757,-163.7148578209157
-123.18151099680806,0.10546929971263352,28.087822956083375
117.16761690380612,0.4538809143783365,4.224345768808961
51.976799147540106,-1.2217258296222293,-93.98822292284859
-12.910048886054282,-0.7431917113934597,-111.33459788959377
-33.41209807900114,1.7467310640515457,-15.447296558939533
39.00832370067533,-0.2276885946124514,10.133813776671012
25.37404002165113,0.4025883399201228,47.27372796467873
-153.39124088256693,-2.2365494208688133,-79.46493494627947
14.44826901896501,1.6047036567163857,18.572719537629865
50.70657520747107,-0.005152313922137065,55.27948442601476
56.13564521388057,0.13253398667278765,106.32460922380727
-68.39462844228564,0.018792849736123125,83.03797252970935
81.13187560485106,2.1752819173946145,64.50426155347022
40.18833249301111,-0.051424141243919474,-151.40351887518563
-2.944573464969191,-1.11147325222012,-94.95956751760848
57.523750533047846,-0.2701787606869988,72.26852509631182
38.50685942586132,-0.311760759576177,-40.51250720670925
-27.04967876498782,0.5355098637058133,50.522081705759966
-74.80880335806509,-2.1341836578196256,45.040355067329166
184.36858623698012,1.0804728631825338,-46.45946485130646
89.39388047465926,-0.2345314775873281,13.20261823016743
-27.657526927154162,-1.7351239978338306,97.28976313561336
-59.24808050112463,0.4479485138077864,-195.2111749654269
-93.62502383658301,-0.6878664124116758,92.09865985391713
-192.12026112134083,1.9013277113689535,-79.71145775996874
-54.634320591604556,0.6736778395255859,107.2204049606573
-210.2979410596789,0.09554450706076661,-78.31457338074337
-17.90297684207768,-0.054579482587405734,-15.73153053109522
-253.56902441767187,0.500753652644845,7.4279296282965745
-8.490191892620661,-0.4733884132881532,9.405884330112157
296.8953450326778,-0.5160062738346469,68.14032944515176
18.708111382566116,-1.688781154830663,-162.6499714650427
99.58688029839874,0.9453862839867314,65.7057943222214
60.91999208430203,-0.6811480433631157,-72.15871857834483
-88.67217442928262,0.41957438466220076,94.5342060806556
-59.27179865153257,0.08572639330287868,-18.536019289831092
-5.777185387906197,2.0143350135991542,-117.75510513157434
-81.84592931100244,0.5941703670832473,-80.94451171186668
-155.23980501954964,-1.1389339208997573,-158.67680924768132
-60.38363040361473,0.2789789668064877,111.73046965409867
41.952943809841955,0.34072622193985347,83.85214428434332
-160.3800903480075,-1.6947899074944528,14.649992664765252
52.01080877396507,0.5551690829248275,199.87186009133237
-77.41295361068562,-0.3612745194328007,36.73632931427447
118.58260054502254,0.029031611133737416,83.97514520495292
-184.84932342498678,-1.807909457138609,-10.610189592550382
43.8709206435054,-0.3625208808664775,0.7319056776012896
-13.495028068188766,0.39352908617044313,8.850997431187562
-47.55310700446987,1.3363068627826609,-64.33801324947405
54.63156212743074,0.1820089619011085,-75.04665526057993
105.93404193587376,-0.17944488832388694,151.64106253444672
-2.8819996130169856,-0.33202993619758964,186.14781844753637
-46.91266850382096,1.4953335776308303,-87.15268560655599
-263.56858570541056,-0.534691985988691,-52.43826870224425
-94.48911172334165,-0.36673083966518505,-47.523503264072005
-58.65699495899991,-1.296174199688975,-22.492677766708617
92.80419322457563,1.1427632862058112,15.390623050307454
80.95841097235676,-1.7890420755452463,111.6607476304294
55.58685540241646,0.46854262406495534,-66.22026427079444
-114.223586018675,1.7757846232697556,-177.00672882760276
2.325091573302395,0.5086914829664032,44.146204485596975
-152.7727040395047,-2.3079520655184385,-50.28425891221696
-116.12068427768654,0.5607663821058239,14.55043212225807
45.81482692432049,-1.5453317271839309,109.66749953731644
82.25654031696101,0.999750812912332,130.48943965555807
12.284225052162144,-0.47507839234831245,95.77442264258552
141.97462671505784,-0.032623581560658595,82.73830165496103
-142.79759226451552,-0.25057483601893993,-65.99480079513226
102.44733626169761,0.18719436759741628,132.33047829696454
83.22294991041362,-0.9579314235307974,-158.1505519318575
14.406468666662345,0.6737469923956451,72.97158983958059
69.99612014541687,-1.0817625709393015,-42.41211061028866
150.05469459009336,0.05799807405349094,9.072036647515729
-48.29550323193012,-0.408617049043724,170.3485319802029
-85.99901538907467,-0.28579645383345076,-7.827467316203861
-53.160214132849894,-0.3660052858656126,175.0519976006382
-3.3997265718918257,-0.0602795907834933,211.8358416987279
-4.871547895424546,-1.414331995540382,17.216225356165975
-66.52161561422169,-0.19064485575282103,44.07795377677751
-131.46782057483966,0.35161028324007315,-11.276652145348786
-149.0572439322483,-0.7524057555233585,-77.60448817008236
-229.2496886427262,0.025222331406891122,55.872895798248415
-104.33963082245252,0.9003306134144362,-75.94688493935242
-28.519044201059934,-0.09470062279097821,8.344069008925247
-144.72300880121662,-0.5366837106445203,-27.89763078733129
-81.47034308118349,-1.0613385907956978,-130.12496686656166
78.65123720184916,-0.9640232665925536,-43.296373486814055
122.25167037228984,0.22473971663538106,96.61960318848215
5.991673747849015,0.7520508240460784,-30.577283689888706
21.816873751587835,0.529245136017957,-14.12613883284157
9.554565782237699,0.47557536226257885,-67.34921977103203
-5.125072482228063,-0.9743074354382452,-97.50491961353784
60.10059308143646,-2.1987723996092656,-44.70943533113558
118.38955391279985,0.051623017792438546,-269.5389020389146
179.31871714259367,0.27421499271931027,-136.66046940017188
-87.36671605821992,0.8312722831006141,124.67831393900354
101.54998361826242,-0.700391314025947,238.11686778247122
31.14271236229838,1.3253143153645073,-153.97406101615684
9.967228765391713,0.12759737254388445,3.4213009940848784
-97.60055450962413,-1.6450872279055087,-73.3125867487235
24.516916518379876,-0.8696635988312214,-3.7558132652054885
15.44783288414794,-0.20323871063182358,-27.05836511979814
187.25238783977318,-1.219002987835971,-38.66017430128654
-40.21166622477729,1.9542063276100816,67.82541219164892
35.89807342087158,-0.38770640096854925,32.12138703439237
102.7849527812678,0.5565352823435638,35.360304068586764
-34.58440486520015,-2.169566051056592,120.59568860675228
-217.05408395153438,-0.048049176489074995,187.9806757917944
-77.67299882760746,-0.6648337880936627,-166.15135568431208
-6.872224002479012,0.1964202824619767,-70.40521226395283
52.93444249055703,1.7821447157766912,33.91792089736431
-22.74368262766487,-1.4480480694453552,87.19342542805471
21.596014003900024,-0.9602978128148683,-69.9182029816536
60.94595144112633,-1.2373788582831127,-13.936145776725455
-45.75756912087435,0.4472099413561008,-33.43667108303991
6.599166008312153,-0.020599523444428353,-163.95109246727608
162.68653497669885,0.35513792525081234,76.54421019176397
-151.72901715707297,1.1349718022071529,192.76901494177386
-117.41247555437464,-0.33683914163596695,43.83087508688859
-165.80860837140182,-0.504516723874578,91.67371185706402
180.9436568536139,0.07182074911326358,-62.9725415194691
132.42100636907892,-2.0140787244657017,103.12363705655778
-44.433331073974124,1.4851078677933596,190.2917750466056
212.47645004939582,0.09326295742530721,-18.32438788875856
-156.11728490848188,0.36270119619576946,-104.13094581226976
-12.315074395547642,-1.0701697013330658,62.022808303225816
-2.369442720646979,0.42528016561092924,-68.92791644566226
-53.677160156363456,0.5602317519738038,177.2312220034929
140.92763749087032,0.8132398458748545,54.00919065193014
45.368989166073995,0.04360641044676069,45.01031688059286
29.47478280981465,0.5690647866057318,-94.81658201137344
-27.845443976462654,-0.10405957009093013,-65.8356464474944
82.42640253718982,1.3355447939104017,-111.82214851251882
-204.34628385634554,-0.8960001125939097,13.628710209115189
49.24512609961324,-2.1135057229566825,38.94516810179349
-76.54610346867314,-0.5713050885638706,-19.5068041964976
-107.6167602211406,-0.28303547758216496,156.2689915144345
-34.35456103356359,-1.4762664462505477,18.76833870558941
284.09696321653917,0.7532658760409611,-149.4723629351877
-19.61823492439641,-1.4085659352137063,50.287902613758305
32.20348628538939,-1.3553274977281433,-48.878808458723164
-10.380492415250975,0.23308424843826892,26.731882363687813
85.83457977226122,0.8742279459660077,-66.90050964371792
-71.03110840521624,-1.4462300845687561,-98.96125723754656
65.21642581112462,-0.07922592311431259,34.22817363548874
72.67918964419499,0.6654725513731339,39.42138307706537
-189.0997926295134,-0.4563636069397831,198.0621960173419
27.54627518194992,0.8640437490043981,13.630512198212116
34.711882257323765,0.047211462810661006,10.05541464881266
-149.09448437203557,0.5796497940913509,-81.83057819095015
-27.524534198824174,0.7735184968070684,32.07929377294267
-102.50713711416452,0.6812110713217358,-74.64898230654224
234.5803692731833,1.9650322434039231,19.667209215983032
-209.34998366828137,1.0464611019587018,-133.62255260371214
25.34055042997733,1.432865178567727,76.15859415645876
-123.09319617737454,0.058546329003792585,-120.2945674918505
-101.53806044720355,-0.001232593923903787,-62.66703486584557
33.58344467679403,-0.08222278686354481,67.77606899296072
88.04593665526255,1.2666496545831583,-119.34279605903231
58.30578904079709,-1.8974149125778672,150.01872228405816
-86.37339446579088,0.8386101322823014,-19.562880780604786
-119.82697095043511,-0.08243578685137584,92.87095569942852
-88.48047887141222,0.9024970513040574,-126.84175326133236
-33.643865869576764,0.02259871460339962,1.530395280487093
-38.39920451511349,-0.6809236827207419,-109.45690296748307
-137.93960912698046,-1.2664884051521197,-101.82500012906752
93.9130022860604,-0.9481264467582583,47.1672985842153
-38.262844492026105,-0.3379474695780998,114.8982009125626
46.624042624287476,2.292811325377751,67.1168882416018
-14.89214771603638,0.08227288326218175,195.38542013972645
64.91240016977756,-0.5303027132745717,234.87215586062246
-39.61807124036229,1.127001620729138,-54.20167712582329
62.337461436533694,-0.4980472856000375,-7.429231602101188
102.86933384264391,-1.5377231278350023,-198.1560528922354
246.14632872959672,-1.0204504192681305,-132.42749887850147
38.48047691041734,0.35182298960593594,4.446461640735827
29.130001616353855,-0.8699316642547755,-148.90810481639556
-143.44767114137662,0.018165695017327378,-34.609926279347484
29.746660367446133,-0.4046762007524699,-116.62377383685978
-1.974218021318601,0.11998435991562573,-22.207431115742775
-160.34616715960354,-0.20405318999020255,112.17387314012235
-197.53555724329,-1.2799848595511265,-22.294134167144634
-134.68369216104364,-0.5995655856749488,114.36148488505049
-38.73863687015814,0.07505211046607475,7.758412418372868
-35.92154027225084,0.7047687026403858,39.89438111632273
-48.52728561971596,-1.6645562420034432,0.38566123061439
89.11111690339882,-1.9311794829286282,-102.16835827402844
-132.5164906513039,-0.3948700837868914,-31.15844747698703
57.23376510440394,0.9505376879250211,-46.920906397140875
175.87667271749487,0.481535260948625,-139.58575732375084
126.78591698504862,1.212851452465479,172.54414722198754
177.02102445515357,0.8690830364143792,-13.360032890846806
-38.78912251663241,-0.18035926085121623,16.312366175325096
8.691037436669736,0.28042331302726753,-138.04572799611145
50.12965991287144,-1.3775685082034488,-58.43990131114172
-235.47184537815693,-1.6178892200746784,52.794881157988485
-37.169217651515666,-0.7566018067109411,16.969631188171103
13.406533104000228,0.2663736060265575,-203.52491230561762
-105.6894280327169,-0.14087771652178355,0.12076225523468981
20.22107313774912,-0.7149930924782097,82.50892634835294
-47.06581300361904,0.18386827377706322,-6.602222969648576
-139.66225903010155,0.2997544027472809,34.56585299659948
-21.23985677058654,-0.4210600883648753,-30.286531554138165
120.67620081035268,0.7397726166202151,30.646842007157325
124.66966991509582,0.5438948201345007,-25.91823151756519
201.48025470101115,0.532158802338736,-49.589741719189796
30.241776311213002,0.4741683617813838,-131.20025770163807
13.611171762361094,1.134463565533217,-9.518814025854685
-17.01190329962776,-2.797976832223896,-82.88829667757214
-31.962088061645527,0.019066802725365425,12.175070714617725
87.11952260868593,0.4312734402522605,212.8809584846618
49.1054518481183,0.8469136759752133,-8.928748740730553
-33.391125621311005,0.2717939954476308,-293.4943358491025
-92.73796169526256,0.06365880648199441,118.45132915537933
-93.62301368764179,-0.7268284016151929,-8.077385626651193
-213.0437878894655,-0.3615296772219353,24.64194089208018
-129.55893878780103,-1.7716804010298013,-38.003679658175585
141.42471419056272,-0.10085346392319894,77.02944810468647
98.97657414978266,-0.7589700723845499,227.66709490187864
-53.008541153932974,0.4219524212748917,158.65018115284747
155.1412655697731,0.5130847934479288,54.68367350387814
30.704789465640538,1.3267344176039255,-37.4169226705054
38.45276912263997,1.1410470439751348,-87.96727777559894
77.03222698414103,-0.46346573794922385,67.9155963909221
20.33429496561338,-0.13211543610930818,70.31694652406269
-84.84837766730575,-1.0241559126829236,118.17916401420017
-8.734830900691437,-0.5622092795357656,-39.35110821555755
-53.04168405204123,0.4131139814642675,66.85922329454618
89.9460794776753,-0.7318222178998415,-26.66763238545016
-52.17839523593357,0.30898204581750577,100.97036468672007
-1.8233905598874014,-0.14251654775198652,-33.56777195912294
33.09139394956935,2.16001131936981,-102.14591193825
-6.629664517938092,-1.0515535326284506,-4.500214456575319
-57.046661151097275,0.015106798070814876,63.463394451182296
-56.679577334816514,-0.2575295904528303,-65.2672985721994
-32.60393076231682,0.5334525598496722,-17.377757179247045
-33.2317585913902,-0.15598025040220995,64.34604026620732
-61.755391159708196,0.6689771400728658,-87.44687747345007
52.328041569973415,1.1546169854702615,227.0855199376406
71.64858601725467,2.1555110652468876,32.908150713730976
-10.905244972094714,-0.3282167419808176,56.596091492823575
153.754739919144,-1.9126131243092144,-158.0441486424005
-181.11553819345517,1.382011709578259,-23.843214239105233
3.737711212839097,-1.171996875621422,101.62309217541589
-10.738947679231053,-0.03224109362629732,18.309241668564077
-142.20855936988502,0.29682671056336096,-62.17103033577812
43.887770234010304,0.7605880699889657,81.86054085785605
156.60768366941903,0.35979441697097847,-35.37477931145472
-40.06829313111404,0.10218333117398705,-35.838497563046964
-96.96078772230013,-1.110331030319649,-12.801307909734586
-213.39308863615875,-0.2631702218796581,-246.333701300362
161.71033328548535,-1.3020316195138877,-146.88915995517067
-50.374183113813146,1.090021232073979,85.10028446684085
-30.103989057919208,-0.5353996968832141,-61.42319130657514
0.24040558086254668,1.5044619105970196,2.1856594268067044
126.8824720737534,-1.2962125454195155,145.57664213377623
-20.781037095853197,1.5904969537704392,164.60265650350655
-129.69260719439282,-0.0024418266281029245,205.52857588843224
-116.81404855385118,0.29505976271123596,-226.02268426358427
-39.693713180752496,0.241213764410883,-27.363811231684693
-23.46879220630965,-0.5305239088269998,13.641033325075968
-4.2777734647124195,-0.09642293420679089,160.9122535465783
39.503248938425436,-0.4793659091341223,-182.18835174223065
83.9400633293357,0.22614801395981976,-57.76175361592314
126.21697740065547,-0.5024228548297828,-25.799051195137285
-5.868630919123177,-0.4960503701947348,179.2111981434176
40.70690098957737,-0.6165836640112676,-30.813773050431
170.58944316234667,-0.43567322384501966,-4.802770351564142
67.48649123320013,-0.7344196988836499,122.15381237946599
6.238511674487712,0.7685455492400273,76.28986711755599
-192.5715632673569,0.898327675714118,-176.15671985315763
168.27746396581517,-0.6359206214282577,136.8162214811558
84.80650901794512,-0.2256813628426593,-39.945869831077374
-13.152051939561257,-0.5343967179100008,43.65426578256389
-28.08473861472825,-1.089319810023552,51.31287887999174
34.50207963080207,-1.0697694443017156,-78.31146857971937
-43.45842075633611,-1.3168380945377647,-9.164538939429796
58.35072480826018,-0.7696594164829283,69.89807337274078
125.66948558538651,-0.09937436742067614,47.94880103870129
113.40938670762475,0.6635970669064615,-1.457183582738649
-45.34386551222382,0.28619603453301584,89.14169297311872
6.278668060488194,0.4122533287004391,20.02982819453364
29.467244575313345,-0.4310254137175022,79.6268952078775
-30.421566609682767,1.6928358748840868,161.98170450194672
-14.985756881266568,-0.32722465209554824,27.13511174505446
-9.957300365382277,1.0326507148374018,47.0357618555275
138.37732103603463,0.7220711407942948,70.05355042380089
28.72704589184402,-0.38065380346026206,-1.0061174069320051
28.43991952324471,0.33610010790814165,-5.626728373013755
-1.9451037506811901,-0.33121819663759144,-47.83940178290438
-84.81151208348813,-0.6063096436080748,1.6491388242371434
-56.18517112764725,0.11705754974828084,53.19407455123325
-94.45292808249076,0.607612861055251,120.62857495407017
-51.15401814532666,1.3268551747169397,-45.1212020098615
-25.971355883269048,-0.6436204951520855,91.62677924227968
168.41096817946513,0.07226460348026136,176.35904816803824
66.34384875799694,-0.07985038342687995,74.97912443226868
45.47855768115076,0.4902020540780564,-63.2634303150881
-9.476148114088618,-2.4616173052797583,-71.62216173449313
153.33046189779793,1.4799290416530162,42.10188255972343
-49.45528909068232,-0.2618853742138582,-21.644084071637334
227.8468271733088,0.30718877147972745,-161.05970066540527
-179.3680159823674,-0.3264631398073322,-6.441752059556801
-110.88690910131045,0.9032223202471438,1.3809104958898877
-116.66506303131771,-0.09817971315146781,-105.86389978163272
-75.22164508012077,0.28418482908604664,157.63754506670227
22.534718249537484,0.27086066075643733,-60.90350711224397
-91.17951854852599,0.14775691942458463,-73.11800195975842
-83.58341207590315,0.2144697471714961,-49.51279776246858
-86.96915845149988,-0.7129448579149744,76.62129140759964
-197.74743858389672,0.21938260815790975,167.1108973458396
-240.98440708856117,0.4317218165717557,-6.46532430277063
-62.071810216469025,1.2081562024854708,-33.166998362205014
78.35691337874476,-0.3865104329947292,140.27841631337478
-259.64509391497046,-0.5339803973283885,-21.39221830133421
218.0811377249432,-0.9466547544511336,102.57527368021509
-9.356559965281559,0.3671964200340374,5.75896911314061
18.06614221654778,0.05785563056638934,13.042374548244561
9.818787552912678,-0.11261723700982591,32.12124523598473
28.968553348001375,-0.17447547516062265,-13.722225939578218
-117.86126695717883,-2.36800537512608,70.69028945539989
89.35554749912605,-1.3157100502281915,44.91133723955408
47.07105121393613,-1.3078908111357512,-41.296676276066144
2.380908228494852,-0.47776054657230077,96.28160315574004
-123.33849551642366,1.7195407736552624,25.392384445852507
-187.26688031419334,-1.0663167577166872,-43.64356133011775
-36.6726178711168,1.8060684649463972,0.8262003771239756
1.1835471558977464,-1.176084121444348,-22.00653658987239
-18.455625631573813,0.4237875419390944,42.38052809726279
40.7796186137023,0.21551129262355292,19.874403571642528
4.29736789220822,-0.7170063229630061,88.68746827987331
-93.1918255123266,-0.20024876027096233,122.18096911157524
-164.07487736345794,1.1068605446672608,-187.5203898196246
30.86111864341636,1.2197426578337731,-22.783181268802583
-33.532992746750686,-1.6485971581067407,82.0378973478943
51.304556776714364,-0.7030277866538972,-155.25422957795834
30.21109029165859,-1.6999280014481069,-114.52607878416576
-41.711702524635925,-0.7982215936205985,41.13401343135529
26.51310404854332,-0.029554923533764675,-90.15516229180294
40.38893400034898,-0.49689395312529044,44.473225576822
127.16814686449516,0.32827926726452705,-119.98045027420294
-26.058186816988428,-0.6395809280683361,225.66086574241768
-144.77430073503209,1.1243768689032627,30.173076339563355
-58.9828389265525,-1.058398951020366,-67.69778395475566
17.546881468748985,2.2923416387869158,-48.172041889899475
-73.9944417383389,0.10942970757713398,90.72284452218219
90.65436410817438,0.6340981689407122,75.57814178668826
-200.2828111913975,-1.8645268030653932,83.30790221316794
23.885030749983002,1.1862726874322698,57.761037595772244
150.23405462899848,-0.09365989358362035,215.33686536568553
-91.00561549735505,-1.5347307791901665,40.86354097371924
-65.3038985662237,-0.7666762069958696,-52.29216869821494
43.28340729804903,0.47077633044057404,-83.37865819691982
-169.33682196518382,0.6024306012470065,-227.84815117765612
137.02559408713887,2.302932671794267,236.63440427318508
46.79208058039748,0.26541708490311267,70.2971130008331
133.6940071410339,0.25550727370095877,21.54657078433391
58.32352687015862,-0.2065769784983997,-72.02279243611729
-203.25863016222735,-2.6145907802212944,-95.57254214673812
11.823960567070907,0.029566744170789645,25.32822869412721
-130.2167524983122,-0.3048283221599108,-122.76465347284382
-42.720167920573914,0.6112964128064664,3.103477077487056
-71.79157934287407,-0.13269692655057647,-175.9524515465166
-101.498461771185,0.5888195917460342,-123.44231501890206
-58.07541456576584,1.474453321735192,187.50438046475148
-243.49236421379427,1.6525673072474945,-97.8896774755592
-87.41121181405673,-0.6635463335568069,-95.03060484513894
181.4570288124451,0.08254855930887676,25.821451919272164
-55.93995720865487,-0.7995487987707219,24.650809540480488
-85.139310095865,-1.02432015930124,18.703320036292062
-142.31326609373778,0.3531560141075583,199.58386537222373
74.15401917653782,0.34318898284942945,-21.271347873235953
105.68476836189633,-1.0440327332977501,8.929031118884838
19.046148736282102,0.2516037429562349,37.11312325615365
-123.33024441918754,-1.4989391314422602,-40.26980770145428
-4.785453240800756,-0.3087024256033833,215.86178755247457
53.42613975763629,0.3849724446890153,-24.045095644242473
-7.763043432787112,-0.9350008683486839,69.5933826463913
-200.90805964244504,-0.18146803155029462,-25.951135591110976
94.1898695071859,1.1268451948083675,-43.47004728226956
74.41615755242167,-1.2375693863647708,108.35404393148478
-88.56110332782742,-1.2819406706130476,282.5113074120248
38.983241963740554,1.8504608889093836,12.763983229078086
-31.722498369469328,0.6793732445928364,-82.84084663607074
-38.11607495954332,0.6642936251878886,-5.241964339982249
143.07080846560478,0.29049684675299137,200.7555510553693
-126.90261568333048,-1.9205954886815524,156.5554325427841
-2.3649863030918117,-0.6257032064652475,26.4403523506266
-138.81578089068014,-1.471912368481021,-79.99670696728538
125.36547411673789,1.112964982227569,-87.92573611268195
-181.00185715603624,-1.7335475608683624,-99.67687138662214
-119.09522922781758,-0.2709236329697065,-21.030086442615474
-22.590961561818332,0.41080523420867215,-41.48776358266307
67.35604869315698,1.3103777593582084,-38.34675450666322
-136.33458490909754,-0.20574692388338975,-2.3817936133076834
14.209273967147418,-0.6597612628244189,-29.467973736280257
-41.45945238899965,0.7965408226419242,158.60103843706176
41.03345238685938,-1.4777831659619958,155.6766917405571
-17.0928831908003,-0.3020284036532994,-148.01516145763998
-122.67585982131399,0.896711484190199,-83.22895652325435
-67.95672044409369,-0.8089150802962635,-151.75121671828165
-4.187183160590193,0.5725179757718898,-56.201641688784534
-55.14138236473399,-2.5798718501315716,189.62998445064002
15.07859572284086,0.0832677281981244,-67.5227940694947
165.4372416354172,0.4174853855754038,-78.8619983528316
58.80379440844259,-1.8570586046122355,-153.92437484056788
56.50451224546678,-1.1300250635103088,57.303586124177855
-197.08771714074987,-0.06309067547998866,15.140387345759484
97.93643937237808,-0.8650830030657117,98.60252518907026
-14.621602862825908,-0.5809917877181426,-116.72404930245408
-155.40949979844612,1.5697321382069755,98.03828110567893
178.84336129715894,0.5307617089459521,-261.3630801721005
11.250789740160904,0.6743705446847662,53.59218295752953
-62.9167423537042,-0.1538618644115443,-134.9761882681235
43.63440698551685,-0.5209282232637521,56.741734212137175
-32.45140426395828,0.9265270699548529,-81.3993337808623
212.9754283995915,-1.1090249117613389,18.05764931970468
-72.39482134357502,-2.2877695297518184,57.4780927494945
-117.79492497415202,-1.194128595345894,-103.15920082042085
69.07900015381115,0.28201625557568216,11.104500063257195
143.91224946298186,0.40954194842456226,26.653133767872944
-74.31769909983639,0.0012836568474714415,-145.2613258744499
86.11314756852371,-0.20215753340036405,-90.67019636352836
199.10332309492486,0.16803209914341902,210.57161901588876
143.00351649492248,-0.6308553586434915,-57.043543025527136
-113.53985999041822,0.3838839473904421,-27.419474387793784
121.05056898188325,0.7602829600535426,159.5272871627086
-11.433902661713061,0.294268867407984,-120.72290454169952
-109.73928361630412,-1.5727729839331368,-66.7421705283095
32.659394222187075,-0.183974059566346,73.49303686387286
51.809694987666276,-1.1117481451527342,-5.152542668621937
166.13386773444466,0.6556784987805417,-144.18313503451824
-151.55421197295158,0.7850353746088132,-15.629253677347515
182.3448419278109,0.4597530655352852,-136.9074427392503
206.39428437199476,-0.4637178822470971,26.73621804521394
-48.501085247414466,1.728305122915228,86.52457131492565
92.72336459142517,1.302654216165816,94.38039999781918
124.21902990426041,-1.104135840358917,46.23573727915268
102.70160902479135,1.12630681510686,49.33069522993108
34.629210185216216,0.07166345740615902,-60.88810818018728
-8.357431779059237,1.0013924763664124,25.197859281610523
19.50665954423772,-0.19864190497329748,192.46446182752618
-48.92131972744928,0.6185575846660466,47.18231622479692
-198.39521367885783,-1.1362301714601377,18.103648007074298
-9.09975560747013,-0.6356429889652602,-179.85383001180912
-190.24964909293837,1.556414284453024,64.54401418896344
-5.8117247770733735,0.6822102353797038,49.15386276722635
-13.803424964771907,0.3313280430246045,-116.14226691897767
-65.38513760807125,-2.4096163135605235,109.44382448506322
40.979497999825924,-0.023774678997001607,101.14805193971121
48.823769365148976,-2.5674766588330296,-86.31502453614428
31.831937897599676,1.4676544694518656,134.22043117723325
-65.10983883252224,-1.156184745239858,154.6060024807204
-53.13570099952089,1.903395849933988,-84.41805718314654
-24.881379581379733,-0.24681470535841107,-22.459256247788883
-182.05708730495024,-1.4767492534809121,39.26053100059067
-187.83699593732132,0.5701936854652431,-60.968580862395406
-127.25899642260342,1.524437045443806,95.47966697549451
-145.01642676238427,-0.24713417193710388,16.209104473946066
6.237536868093958,-1.3398418583622733,-165.27958888801925
24.665771721664655,-0.5634392240498801,-26.88034100583269
-117.41754905145372,0.6961033137158423,75.04000977084057
-191.10505321479982,0.47682297398800794,82.54870889967836
-25.32702590758447,0.7952625217712511,184.6462833929142
126.97412738754919,0.34699443171978367,52.607497409839524
-76.66700918216931,2.281760055826345,-0.4945526453936337
-27.845794164197635,-2.598728765632746,23.889733406525433
10.306484944973429,1.3322337172800172,68.71493506056333
74.45315416960977,-2.088515687337202,-57.35280606960481
-67.90485384085333,-1.0979940356025262,122.16779641977111
-88.88297610868244,-0.8469052648100012,107.86125349881948
114.66265165821441,-0.5722133836970381,12.917231495171325
-117.70341391510593,1.4547146033175753,-49.356502837136745
37.596229763265896,-0.19710879131221754,-125.32559727129626
35.325435268717634,-1.9962901751401112,-148.4269872867465
209.8249689549868,-1.3972770339147953,98.78011358634289
-39.38446469726548,-0.6101594463021733,26.76314341528449
-35.07731441232517,0.9364680032901502,25.266989145902564
49.977978146345464,-0.26792703191071443,78.12706663012385
8.103782256579334,-0.6515939833021294,22.307416746657992
25.359916967246654,1.9797156935500613,-26.549730252287578
-94.80748652579985,-2.4474105112219853,102.25281739691829
-1.298184730883224,-0.3062248205074978,194.6500776905093
-8.69945625870997,0.3122682627780069,34.82937817229506
-24.041852841085777,0.8361961207103493,-5.65999077237795
27.07796691339548,-0.26982536121401385,-161.3822996743474
67.21523049774537,0.36656512138110586,170.0992078924134
-112.62363305489833,-0.29503632687016673,-96.80745448799028
15.672529283082989,0.9835570351292999,201.28853761010265
-70.97525343417416,-0.8124439092566037,-56.080641165594024
24.170769552010853,-1.7271552818670164,44.55844644113307
82.48707316058517,0.11074724145712983,109.22142543331852
-84.31821507589402,-0.7943474842767064,-10.130673573321946
-31.25571209403254,0.34155783196380135,-0.13231446673424208
130.39477563972858,-0.6160403302344014,-14.204660639353808
-55.89523920067202,-0.46929898364598255,6.658036550688111
25.91642508667713,0.9420060939937311,-18.32908295156394
146.1777578293098,-0.04883652327122935,-130.56569077113832
75.96564790490974,-0.05667638826312088,189.67777748922953
49.24314695686422,-1.692578439356503,-4.93173476758652
-93.33661040263694,1.261414320129269,-17.03388722731706
18.56902046717713,0.8590913028281668,-101.14324414206426
135.96191982928957,0.1298943250301745,-39.51086473115894
98.61794149978624,0.13716231523552544,55.386742956459464
54.73800742712572,0.7323753579643344,20.448021962419364
-78.28535001415742,1.2956503584538204,171.38002070168196
-157.90978672576418,-0.36992181779671596,9.294881578158238
-15.311831986470615,0.13576062440147452,-48.69547420557139
28.1153506744813,-1.0598005930228358,87.12843365019012
-163.6065682673405,-0.9891947717589217,120.51502136325685
39.87995576058392,1.761458577219945,108.72448766592314
107.55755294116231,-0.2507245244466274,-96.28189673718704
-214.2523183782077,1.6413849789248949,-172.7188335538677
-151.16345586666455,-0.10216941394394168,-139.22569759130238
-30.344839725487923,1.6274635172838836,4.746454182248483
36.864064982651534,0.14961221712249506,-2.394248514769249
2.3991284343293504,-2.1302910887215063,83.6140993138206
-37.73311597757875,-1.086740581525507,112.01090870161798
-183.57245291874176,-0.32965557644316823,-142.574679615396
31.830824383421785,-1.3785917440132356,-13.790484490031805
65.36719471014842,1.941593035188755,63.30852433603701
-7.453964035579127,-2.2825764242668436,-91.17930717860665
-60.00512950716963,-0.9467340662807978,57.476130866965214
98.4436302145333,-1.2601393519848267,-153.2657736257959
57.60772606157336,0.34285537100828745,1.3427507234270486
-152.70205863545112,0.32636444863324665,9.239173579977571
-178.0496994984214,0.27581996485717003,93.6617604813225
52.29234962618874,-0.32231844806856214,-2.724910775688925
41.89707235342622,-0.039190493729630016,105.82490376111934
-86.71363669556361,0.6171097306775861,65.27166583860861
-67.54161765599603,-1.9217498937046402,185.47027565891474
256.5036967835903,0.6464671397264802,100.1009236909088
132.04210916144618,-0.028419685428851933,163.97412464154357
90.68211718530796,-0.8764578665602474,44.76346340110163
-119.48455196050689,-2.2219059580865275,-92.30259163587668
-6.212067231670473,-1.6365983075566348,-110.54076993176905
165.42747781524378,-1.1170118396981508,184.08850891068963
156.48686696544877,0.24536114157438352,91.38628007430107
36.46104558227772,-1.6309879488132455,136.5894155047539
-23.095831488203313,0.468828529685941,1.3142566956003747
-64.75732108222935,1.0952595853795752,-48.30804340955539
6.764264662531572,-1.1415397486514391,-54.59420779058711
-41.564515130248346,-0.8562161999888176,113.19801643565657
-4.6445445631946125,1.0492341158415188,72.0959270476405
-64.46526465206743,-1.5241473797966527,-12.365392141162337
98.97415450989298,0.5525403530829026,48.263055341162655
158.60228848936453,-0.9870848159803819,25.199308017685674
-3.9680880960997533,-1.459865828069284,-135.96761233542009
13.126289299649226,-1.3321273879990014,104.54903441142234
9.009073964589886,-0.974447241115319,81.32181265111433
87.4864472516662,0.9629870860207549,133.8035925007538
80.05693771078005,1.0691196049991727,66.50594097693093
-186.18709104907373,-0.18763381200648485,-46.231938491642275
125.80179178164616,-1.271185171581428,-9.722020418961373
13.040500243134757,0.6355965207690949,-91.10646567559104
-65.47791565132297,-1.073826142114246,-177.74956024878838
-183.60599768780077,1.3682313934385537,49.16818258246868
78.31464308362364,1.0278324422222491,-18.378034428101476
-67.21555406718936,0.12936747486940967,-26.58242511120178
17.872231893184882,-0.23820090994212284,-25.50422806269382
-43.349062175987775,-0.4587455701857084,-52.33110338080073
-25.338655375222647,-0.5483623283892077,98.69092898258343
-105.67663917854364,-0.16709542191509463,-28.69327371594605
-22.49137668658467,0.48722837405283886,7.916466366550484
-38.705350831480466,0.43106172140823557,-119.83683990118598
118.25157063140328,-1.415300502249332,11.201480101250318
-164.11439404984324,0.4754395345194171,-185.14671236376378
-69.6637442646945,0.914365196141855,11.460168855471176
141.0605381356434,0.027861929158250174,-27.144794807624884
36.146515887784176,1.4951402310942021,172.16910165653806
158.3700565628516,-0.21811781297929209,3.3361172369448466
-53.57713212125211,-1.5276582652851216,95.23052774434316
57.89855756093532,-1.759847602779783,-112.33226136643479
-154.16633551065894,-0.055151401856354566,-90.88826352237727
-19.42154970753436,1.6475638297598818,83.53683575735404
-223.6876381498259,0.3254837904519992,160.26369304351832
36.621320452776565,-2.1092923106648196,-90.62006307397631
-211.20562396793622,0.4089097160271322,14.244298319643073
-16.426915026395,0.5342689622408398,-43.60970900683278
-158.85901090403934,0.4701489774907695,62.63308312632512
6.529738658493766,-0.29246114383971783,-72.18318277232348
-95.99832555976775,-0.3872689834151589,10.888624450011568
-21.25979268063089,-0.06930999990761141,19.956384739012094
-118.67953760075318,1.006726183476646,-22.861618090495302
0.9303966587343815,1.072069353922128,51.901313091218086
-36.039186164429765,-0.18006573160954095,-26.28204640839231
-7.367227288921196,1.8893540450282342,37.597175068165846
-91.71685457559065,0.6239149105958176,-295.272318491794
51.42553325647295,0.4242267808090028,-34.17675493995572
-2.929497008512754,-0.12693032730846768,-292.4451199924699
3.1760678449509423,-0.44077135347723684,-199.9335158431228
122.78816627203013,-0.8945750468806589,136.7842608122981
-92.88380535643267,1.0379494868959598,100.39061597930416
-105.97717953045156,-0.5031646383875766,115.75757256046484
-57.49160231438778,-0.9211462055895933,16.67769985818993
12.320065613903921,0.8108001058897245,-146.52416251734832
-23.36355561252264,0.5789580785713607,-53.82453793736964
63.89225940763944,0.7178847474024544,23.696177754620617
76.22794504780822,0.2158620600927089,17.77623264350506
-54.6139399816553,-1.1251103686079538,52.069988544661975
113.6936052082103,1.9327202945584758,-37.622942924120146
-33.73893750037114,1.9584594944359288,76.67629837995365
16.716447721019946,-0.2716519390444952,-9.848124958880627
-73.49733037188325,-1.7640063882613528,-123.85276362695905
-135.00069279670376,-1.1019718765605373,45.28371461890663
98.27903187504877,0.8905022395434106,27.447520798080138
65.54021359483889,0.20833805846551262,-49.375492836547664
62.711884032985154,0.36352370862802014,-78.91001137178094
56.24549198504045,1.1904564508785243,75.75724208311763
-49.93448593813778,0.9190989492058238,28.709994745074745
-95.28271528766396,-0.12186898663941116,-135.5947020860106
-69.38645628956635,-0.3012959231262958,40.87660310821847
-27.259201230881164,-0.48827836349173975,-128.81441192712532
87.81425385003345,-0.357460154788293,141.83373889127864
-42.39150533961785,0.3856818034883858,54.573257094044614
2.368594572497175,-0.6027615690745222,-29.801576971159182
-102.83859888697418,0.16370640457673127,-35.29277554444649
-27.459645428906605,1.3094427080332125,31.383457399538138
-156.96927223103992,0.04215514639065429,-97.38509157453576
-70.71939895317517,-0.3047944789432404,-40.00233169353011
87.42186266649614,-0.5174557770365263,62.43496629446377
-14.157660880479758,0.6145811916848712,-137.26237965489193
58.659271779373015,0.48296061818958247,100.89229377372979
-139.6733095290793,1.3249160764954433,105.06994551438056
-9.487732314133085,-0.25544598589793616,-143.69869478206596
13.69143643275256,0.323953249318042,57.64838648645182
57.46042452222967,-0.1143221576019057,6.738485119696357
-140.0964242529956,-1.3925922076379702,64.96639547098545
-32.34631185362295,0.19273114796624,62.398868531499375
51.643952799524996,1.0437994625070535,-35.0448287808435
-96.11469863024074,-0.06518674131355444,66.00818246675438
13.922909077358298,-0.7440247181261029,215.69399171262353
-44.741208509880806,0.5281041185416587,26.153589835294987
-75.03314544001493,1.1382393245938593,21.17259299428641
-44.722590993376,0.20482714754963768,-125.89434423537618
110.17731537866591,-1.1894715629668147,-156.0365328711971
-68.36356665461504,0.636394603884206,69.44901604466712
-186.8130983377619,-0.9226372023197045,26.192061007004348
-151.19257604095904,-0.43790719964815994,2.8166501261187156
-126.53102900446692,-1.007155653212001,24.924517164839642
-46.60190340743859,0.03595017770224873,79.03527472406229
55.0233137123778,2.2072220929572355,97.7190552890329
-6.144352630793085,-0.5435834894350625,-30.40206840883123
-30.419839651066106,-1.3994496392605533,-52.89550520957741
42.47661872229306,-0.10048567504237488,-30.34418779814742
-66.34486656642227,0.4013069393886607,-83.69844390110812
-185.99194325112776,-0.2806662554839197,82.48819582034429
-217.224357253204,1.3291884608239573,120.9735982975128
-89.5700740678451,-0.9766516054998374,14.14423236355148
91.45988050524441,0.6224271594532699,-2.9829078658838952
80.3917446980993,-0.19395953412595748,-15.81282889898509
173.30878326367352,-0.0919275701476328,128.98779216638553
40.091466245716745,0.12581806009086638,-75.3465449717846
-113.078534671045,0.5957625770659584,-213.55141345267282
-54.082804464976356,-0.6839188574703987,-146.79390484425042
216.56892867243837,-2.128288124533378,2.730439845591847
14.941468863318905,-1.2538135721225057,110.00910374630044
-65.31852624560698,0.21067952196863926,101.47604771775329
309.95140018681604,-0.41995086717612673,95.99803111034788
-9.460765082129935,-0.876686611536942,46.93456290830615
96.78396982196338,-1.4150992334738304,130.11338679346935
56.417482788105175,0.12301192724586102,79.73272985674505
-104.82290267992357,0.5460039601778189,81.31633742009387
128.48141819609162,1.022106848459157,-26.705166894347226
38.70616012557654,-1.2333879205055478,-88.10837885092988
46.45400336600496,0.5774277169556212,7.165102301225007
-3.4323498319633714,-0.33362897500832517,-130.62772147968917
-23.75371052152036,0.8904911507427206,-110.74195976937364
-16.39197012752861,0.5766489381047049,4.880581575762647
56.423636860445626,-0.5408475094324147,37.74737986658007
19.266366527873977,-1.7584148865495153,-63.14429161129258
24.849869541324107,0.3417414016381589,-87.85055724118924
12.455753144981404,-0.12379129578767209,-143.37566243240337
-10.588386975691762,-0.40870520959420725,-27.723495329067067
63.984719784018786,0.7328126804287846,106.32148196454129
-70.28034447904359,0.5168664400611831,101.26399762489162
-14.90234200726605,0.4153500634568158,18.314059700226125
-80.08900962505152,0.6341406742963704,24.526980073446573
38.85192769553947,-0.40385357934560306,85.73640658590544
133.50408802817364,-0.948154175256323,-6.417937952013129
89.86092541440827,0.9172465977787803,22.813116300395684
56.85109691369525,-0.8019401875165257,-103.84322467169098
-57.0945152527292,1.2404026281962104,8.23782613745503
19.027557716109484,-0.9896377438310491,95.96248766480412
53.26513622237757,1.3866038436083141,-107.29586152260188
-34.81078485968925,0.8398259226463612,-4.385185331962925
-29.908872668665325,0.06596271397953013,-131.33324848654212
-105.59244871446182,-1.818492368190013,-135.10728225863588
-61.34470409232655,1.6612664051496167,78.97778528226674
99.25775488185366,-1.3024838495515474,-109.86987544087359
15.287576708162831,0.4614554194612549,112.98446384093282
-201.1880285816429,-0.5489101076678858,-159.2370439626513
-42.01218536169661,1.0069061214505644,53.29609059786606
119.01609938470419,-0.1770622539590304,188.9394596429851
-42.033697057918,0.49428312376327826,97.06502442590048
130.72751236699122,-2.0970398714087035,-97.89228526726139
33.82111806697212,-0.053676409770042274,218.3289687565305
-166.15443982726265,-0.17145729621835354,52.53277853119819
-6.3022641567320585,2.342446931915651,37.001875731717504
-104.92357278864478,-0.27742456245304103,44.20105965946335
-109.3054475029116,0.9763355424428549,-7.428392708408982
43.80201224969223,-0.046058040412468595,65.30646839401314
-163.23089867747947,0.8527973597064175,17.99154974929907
96.60998049839584,-0.012286905804521209,74.20028886325511
9.13589793630075,0.7495059807840454,33.23036522028875
-157.8979372711222,0.15821537153006945,66.78943205040085
-27.49703721752078,0.23509944037260966,-10.109333825848289
106.92616246474343,-1.1463712938299375,-16.573551798252566
-76.74870765950024,-0.71504641015762,-102.08071683684452
-34.4989911336537,0.1666620027226001,25.909405213415297
-89.70910919529629,-1.6937803992608131,33.088372669366265
-85.7229776472647,-0.1213881105292204,106.12630068700344
-6.959567395525715,-1.7592325800909252,186.6038950766597
26.18795023079124,0.1371367657687042,74.06904417828459
-76.99708523118896,-1.9023856224442737,42.49397495164257
-97.40399886150716,-1.650885263539733,-139.19691167142244
44.25601107959605,0.3545466308245501,-142.86154104588638
165.63500811512412,0.17099905606202226,17.608399759179033
-76.81401726477888,0.22722815895669635,-39.59678278727925
-85.70394430589513,0.5995788622599038,45.61594502200798
126.77676676862642,-0.17397052234851032,-89.37312045557022
123.22224745410529,-0.34871975654329435,-139.868550621596
-92.98872929121367,-1.6557219859848136,-34.81306364578117
-68.27546453075938,0.015151519019125497,-36.4423173610544
248.08844414753253,-0.21529618498674682,-93.01389785873148
-119.12146558395077,0.860686905151717,-17.098343426065025
-36.4637908429604,0.13290611789156093,39.17092754863635
-8.698499240268925,-0.9769706485717892,-35.74334106615405
130.60848209195083,-0.8089623235846785,29.37246569235598
-79.07884364256499,0.43375286586104683,142.08687278208555
155.20163351636762,-0.7421545687706145,-70.4170460271643
62.14170064147338,0.21024200698552037,90.70622658907338
-28.865293398143294,-1.2782366716604578,-43.69943197034396
-89.13182759765577,-1.1566844515695807,11.871685512364607
-25.334074806133273,0.7988504199427542,8.72754638498737
37.901969456891635,0.9191370326413101,-50.498846065848035
-24.22628206584176,0.6320482807662723,57.21902281771556
35.787519444819274,1.6303907541081213,150.10466095329778
95.83589822152729,-0.05554318685289248,107.76135951543078
18.699503068537286,-0.6099051835734761,144.49726667323364
-161.30254564877075,-0.10424694491172794,6.530301292970772
-50.842640795505176,-0.5407807102328651,155.80602232965526
-21.027888131101648,0.5782666417452722,127.94003796501978
-33.41342882078761,0.10218344052814317,-35.65683860873735
116.10918649409055,1.2251348475507844,131.90197735054693
-67.73216126338228,-2.2125565975490846,67.86993062829877
-16.823672319476422,-0.6238969500199273,49.220632144423135
91.48595629595486,1.0581566596439744,18.894197722884147
16.305271745936302,0.4184759172459483,103.8136887885759
33.75282188272243,-0.3995146955118063,-45.23270992190205
-7.613022306491694,-0.39711497407018154,-24.060803295026002
70.61254055485826,-0.8159900552649272,299.3649836525538
4.46735570783914,0.6004985350870379,-54.305496625236685
25.11465399620979,0.3486469979410142,23.379657978069506
-113.37769306682361,-0.27312963845672006,157.34731777989268
132.20937671654218,-2.415551534791716,15.696422035580456
22.75597610151255,0.2833736083161225,-51.68768890749046
-51.55398867086052,-0.949704492181337,216.0513283366479
18.224011438921757,0.01772460215698228,-38.779350587181455
60.56803447500499,-1.208196108452877,-45.895660482281876
47.66406550646209,2.0488022179555103,4.850889370311319
-144.41260835447207,-1.2377737788013026,-59.35147129414268
126.2419141127782,0.6737651532100173,137.07534383920427
219.0601626028168,0.03929712592315984,-49.28680602472294
-35.61919907421906,1.8451260146526602,68.17460289623955
-51.20798962015033,0.06630400028290324,-40.655063906468186
-76.12663564966213,-1.2434589590563672,-152.04725547020493
-130.99940697211755,-0.487066894608725,40.3932130869945
-21.59252253965641,-0.4708650806025524,-59.49347327900894
-37.57785851404372,-0.38136367921733133,-121.77825623643695
-14.12023409057638,0.8161705381743528,2.076836231347121
-25.117971432835333,-0.17761420374129835,24.94536738417585
19.922748489181373,-0.8267069889110018,-78.71063232087498
-44.433348156232235,0.8307596033297026,7.874434562869386
-217.4876462944749,-2.389802019351246,1.0125216548486746
-30.757636917281655,-2.292257896106201,32.545995438876204
200.52164187260092,0.2851044873194679,136.46304593189288
-61.45384155952872,-0.6823971063444042,132.7865754250001
-22.488902610774396,1.402866492439479,51.408228304976724
107.1598892149008,-1.7871548034625593,-54.8603806772341
30.77860761962949,-0.18864298942075197,-52.08839380525963
171.71542004205435,0.6088010814298874,81.91889162184182
-35.83130513096135,0.16412937057986274,30.009006617461125
8.284993850783906,-0.3960211438732604,-55.797850630347156
86.1494409686126,0.014544260162295415,34.11065670076071
2.6294091825765022,0.19396177823498822,5.955892029908453
-111.92921484035041,2.6461306501856594,-102.03178509341693
10.919651755562814,-1.4130631444404083,-28.717589356328553
-42.982769763755726,0.060571875287179944,-78.79345362380168
7.862919419572995,2.301434570272021,-0.4150666585524191
88.82655099336253,-0.5334318025133186,23.331232649630053
114.22512141966989,1.0441735696215382,-45.03366406509028
-6.398015870805648,-0.9924393723769742,-21.659598319601844
-105.71312143622838,-1.0751211498557172,211.35001201697114
153.1451525631553,-0.06173620632857526,-17.23358974952992
22.838077388817528,0.5399054052273748,65.22547316171766
9.525969235139074,-0.6077845128462425,85.77814613122494
-201.00279277340053,0.5224830596474905,31.147645551420837
164.7525719190931,0.3510972874723531,-141.61535561151658
129.07838843688197,-0.9314469593701005,-62.97004726114089
125.43369146753396,2.0138921921867845,-38.72695826489173
-43.93979408221215,-1.1784831790554962,163.4292955389504
-222.24878051990095,-0.7101904750552345,-60.40206875027467
5.585992561506059,0.9595542848362636,119.78489369093963
50.83711097198529,-1.6793301709436002,202.737086922722
-56.15386622251055,0.20849206265587897,45.851559569746456
174.79030901467013,-1.496954004315077,25.799903301748994
15.402876136802545,-0.6320615893222389,-67.06074031006207
-44.541356385908955,-0.67134758254028,-63.392956352927555
207.87198808316757,-0.7514720726785602,69.14705564043008
75.31919024506703,0.5852295620186722,36.6014599287377
78.46817827359064,-0.07443333538844442,65.6766828249182
