0.8741295918545854,-80.71701280434904,98.67348741788253
0.6224076883074056,1.4152532947192207,173.48121101014456
0.11926001832330796,72.59778340317031,-26.59829509780546
0.7326847082382562,-101.74513391122221,90.00256263617061
-0.8453190211939811,215.61110355937922,14.698313536208904
-0.9164488962652318,139.25198194988891,-110.77510755430431
-0.16310525212447188,37.54191926456908,122.52001091637177
-1.3990876503222645,-48.887292244505055,-25.666288179548157
0.31923159044066785,-36.841399315875876,-71.87882968531257
-2.4373975937616734,-48.57136378087799,167.79851630281576
1.1562028409501421,81.02247509026115,-81.09596598215923
-0.46515082173281147,43.30585039497616,47.23372482234882
-1.000718083100313,-151.19710180110462,54.7996908134288
0.7764680648068593,66.36263739359751,84.93164400365112
-0.31715209703321334,-0.385441626036452,39.35356036433212
0.6246226250502787,159.0626588287889,120.35302105249409
-1.123848096859076,-38.391041357369836,-77.32222696836884
-0.810156442588908,175.94426461363963,-141.0084423486948
-1.2544815512159966,22.531681354831505,-73.71628993384618
-0.642700287578486,-26.089062463730343,-46.65098730198484
-0.7999921965811362,-46.56044605142108,-44.19788982400173
-0.119965964681712,81.02376941853194,68.10735513273943
2.6583627274438646,-46.069253455075284,-31.45911676887499
-1.3511104717963591,-106.86929050655611,74.64738373039216
-0.0523167491765843,-64.87608529535053,-0.09893734770592395
-0.921633376181123,-76.27035171509237,10.785928318509901
-0.8923599095985113,10.0596504705386,154.03415105212844
-0.8430470943626194,129.6108157351893,-36.263308091292835
2.546677011533416,-204.90799887141918,-4.310594370898785
1.8064114509614069,-16.931024275587447,38.78516041768225
-0.2939471151039442,-137.67326184836642,22.779708136428503
0.08112518585788328,-155.11225287871548,-85.51633103035299
-2.06752347424539,-7.382853177413545,23.447383711435656
-1.0626298915217105,89.75010825519136,-8.940999110095385
0.6324067258421507,62.56811155429942,-136.4446279752287
0.3584820019991825,142.3682455371943,-101.00048368771772
-0.21942900358769288,-139.18118202947244,-23.931803725831386
0.8502839885816311,64.45034214531157,-57.40065262802388
-0.07433930571546454,247.1760663573138,67.01032132061519
0.7432715975887947,86.19429113739143,31.28370807237203
-0.4557592906278433,-84.49878072067047,110.59197684942512
-0.4662824780451219,196.19412869818004,-111.9242679419917
0.2638124762092735,-239.40329282559964,-131.45770212551056
-1.6163531682348236,-122.17523972762821,-25.394160759217883
-0.889048979812332,-16.875898242278563,-82.89976293896413
-0.7046176481120813,-7.374455074823444,29.832880664942518
0.4553751282052453,169.32884792325498,-16.159844393502958
1.206692930813107,-36.39453396748217,93.43699718937867
0.6189978886645368,-192.19546029354953,3.7188604452464302
0.7913082603850294,27.48431074127341,36.60303259648343
-0.14043805631113077,24.386509016386356,46.13053891301424
0.14155984071120392,0.7071489577585988,66.52147736199517
0.7766906332196012,-53.76022498049671,-95.8054970997361
-0.47111088409359214,248.1082549050269,-93.36124703343755
-0.3592392800280643,10.216410341971022,-121.59343328013934
1.7393406825326443,67.230709254596,88.71620120901457
0.47103753881357885,-3.066082802259557,136.814952967876
2.9740379581233896,-12.9432346343861,-219.72206974619914
1.7310602701254865,-87.03040917667629,3.188957796918781
0.25988535463905527,-138.5943411857847,66.06827603727031
-0.901024437390641,-206.41089905945037,155.42006752510173
-0.9923218564493336,-237.76457608686522,131.70187567012215
0.2863350233957773,-78.37615164399958,-215.34821088318674
0.7200634437592826,80.53600040508383,-164.28945447263823
0.20227040236864535,-0.7241325909314912,-63.67944393048326
0.816300304449756,123.22595921761778,43.64176819045332
-0.1406603006797529,71.8311033105829,-15.517276167633968
1.6273249286090392,93.54198074750359,5.81116417375376
-1.0692100799212698,91.68092313822798,-89.02669606934857
-1.6296856018258767,35.30758665663603,-94.23023552609962
0.08146709687488524,-3.4426218902178283,2.3525904456053426
-1.7315369643799852,249.8127661247909,10.312894698627508
2.453144427919724,-66.18667937392732,-168.10102666425894
1.4347090900331336,-13.053208589973261,-135.5964298295286
0.07217242277776892,-205.80300627484425,-98.70391820666215
-0.5846163322041045,50.26991074412541,130.23310684197835
-0.2790775497071979,165.55251057470096,52.27508171457155
-1.1657127452532812,-86.54705084884678,-18.273112615858096
-0.8751356308315527,-274.8720505774552,-15.255261331204114
0.5208259928071373,-128.8623824949809,-6.515113084802489
-0.15019237440236322,24.723789990713023,193.77225241617958
1.1192968852354244,-111.78046227936814,-128.37483990743695
1.5938207071386081,-26.074574794599325,93.57594570554589
-0.5654599752152448,123.95296230519368,-34.87250284814781
-0.1006102949927972,-84.84721861962272,-118.85795815980522
0.3246222913609615,-90.1218134743632,-66.85383870970082
0.4863556309024462,-134.23961965357094,-23.282546184029833
0.03980473029205007,-45.2702221562429,-18.21912475514939
0.257128026630875,47.555392653060245,-73.71415682158812
-0.5033893225466957,57.272415829113285,111.00208483045758
-0.8596142056813059,95.3255943598028,-91.35309476641274
1.8827838358029245,-169.96214315482615,76.73761641535148
-0.7304639250712799,27.012138599315882,69.35383380942045
-0.7954547786319209,2.7474236892851223,-10.537731881087193
-0.4794177745337396,-88.56906154071163,-42.21543952237211
0.23636993934361225,63.743515036778874,-25.004001713297537
0.9310630267440102,-3.2119243897385528,-12.75976196159224
-0.055959285418778384,24.774376841273803,-212.1591579195418
-0.712797413261298,-108.18763464348709,-97.33598418621291
0.01597987794465976,-20.864753416445243,33.25319622593803
-0.24068075772007239,-75.58210138048605,-27.384780820229835
-0.1780320322481175,-59.54426631719457,94.21148312352217
0.912419159560633,75.78496019085348,-43.08563835731623
1.2176755273349618,7.542193225298465,11.889568303926506
1.5872672999184199,2.1045058622993054,96.58202165406367
0.2978525718214603,-219.2366892059977,67.79852317529487
0.28933729598155744,-117.44436513970817,44.026171797395385
0.39558852473782613,-11.196505200508655,-147.93459661357764
0.7984633167092536,27.76208455056437,-81.15073188877233
0.796126761656941,108.13710439702223,56.687329894918115
0.23771441579545222,-69.60121777671799,130.92000612282956
-0.8606915961876583,-42.12905123168926,-43.857343138413015
-0.644600893660195,72.6775516678661,9.253112402014807
-0.6272835671180185,32.4593138895667,-17.911825056276566
1.1557838307930137,16.715992879368567,-84.10727229926515
-0.6992173631222948,-169.7349679699684,-36.88964734492343
0.42993955008107965,-34.447619864768775,-60.72775787464173
1.1062254864623366,-16.66854027369624,217.52258372576532
-0.9760275406539224,-216.2206504203444,-8.483816974053752
-1.1109962592313025,50.90081890361047,-146.3903531128986
0.19815448804944416,-15.364383685554994,44.577865132294335
-0.26951426580011517,14.125006121888587,53.02374119286897
-1.023788715016092,-20.87231004536367,0.34542853325174505
0.5594966521356783,165.9178507728451,-113.0552443686998
-0.18042494146907082,107.14559781263691,-159.15758544537553
0.685579162270222,-79.28572391326408,-34.75507359498259
-1.4133006058218003,-93.20630097688289,18.530221754278635
-0.21196618841893503,92.92957714661644,27.161757596194803
0.15245754665283856,-2.8475559630072875,-16.283017392056923
-1.7119230513728803,193.87361906603283,81.15714152933276
0.5277926340439967,97.78441236444488,-97.66290338328444
0.18316704084667493,-80.75226668341966,-86.88495260252598
2.6765383868178456,138.54790891264076,201.7995518494469
0.28017926078731786,69.11609798901732,-8.595364390775853
2.218593041087818,49.47912405228895,-96.54825990478473
-0.6161415510431416,-87.5593908846481,68.3429166406678
-0.06539200736393623,-39.39503800766249,21.20379212095813
0.2629277622205354,74.89422526975544,95.67305536208485
-0.6727581174039088,-150.75532521589076,-121.98041897185226
-1.5738967171279137,-67.09308881180152,166.74918268832957
-1.0702280626348306,-36.893179248386886,137.52814049047282
0.12567782476865214,-31.813640222216865,-128.61007148456662
-0.9843397707895355,-8.602497898385758,-158.38453062765814
0.2144610917486791,5.8174928422634204,-48.24867541232142
-0.34218101131861206,69.65686883913156,-57.66604023672799
1.202151769209355,324.5625069521658,-17.627607667423387
0.4466326417119286,64.80738328898163,-17.269078952223026
1.0886980099924108,-76.73238346893075,-23.44272376505508
0.44971209951783786,43.24917025392048,17.62091183282263
1.0832075539322454,-152.2441134007743,-91.34612935535102
-0.4786259822388847,81.7738247785073,128.82338282550066
-0.021765434602213304,42.72293394234947,-40.54208045895364
1.7838208865562997,123.32391706713526,-52.681258656890485
0.0940463563574094,-63.33746060667036,5.9865903428264025
1.7126628316623866,-11.882361793714486,-31.924882122517513
0.013139766243366808,-194.73036874532582,46.300972625370726
0.6234458641186308,-87.89862558155951,-21.711761873711026
-0.6821260777784965,-83.852732201679,-81.21446553071607
0.3375824765878496,73.20584086075593,45.42110255841988
0.022687405639097852,-108.98280517075061,-0.06986683804678297
0.9006138069683579,-13.459131460228848,-137.66916853904192
0.9382845558985772,-251.93484396291117,-71.19588706674419
-0.707391203507796,-75.34438310499795,92.85358969449189
1.239219081510785,243.0642859694798,-17.07363787348264
0.41186368575167087,-26.689305124221914,24.96307417640857
-1.5897673676997222,18.014247661618153,77.90990605931157
-0.8963212451335502,42.028583363237864,-79.5464806622786
0.016520251335812475,-50.03405849285244,152.84397464989226
1.073120605294159,-180.83027047096826,-75.82781058880362
0.6178517428509986,-58.73165585068263,-157.0773500074202
1.9017461387669283,-20.63189311301934,-85.77905824168943
-2.123195523104984,85.50792179059715,-46.367567312027035
1.0233265224814279,-16.240579147123697,-67.75752034184268
-0.4984956979984663,-66.14645494836441,-26.95586218799555
-2.532169539572018,154.02693917094845,-96.75070315053705
0.35901205915093387,66.91366684433417,35.581590247837305
0.32764565448525623,-150.56180707926333,-154.85007716250973
1.1474497984699572,41.06115959325211,125.84833879359678
-1.0551628945116098,-82.21040241899162,-89.55292694597027
0.6689745117063307,34.9526583986848,105.58880723503425
0.821683713578882,-58.89771481835401,4.587919798202018
-1.8236623305826787,-99.39505530710916,-58.29363349517068
-1.0213325244263198,57.06841601890821,46.17157282995258
-1.6242418854663023,30.892549371969714,128.9887151511986
0.42985576922067303,-1.1152424139326367,-113.25407976928408
-0.917779366318036,-228.73776095495256,43.08295862027429
-1.4599096591910776,50.13866254234245,155.5641876506404
-0.5627598575440365,35.50201590710616,-136.0104832769898
0.9835959283283975,20.44315093109145,222.59362731712469
0.2274210255189734,-50.407284973792784,24.010269881634976
0.24500050786122765,-106.50270955124938,31.216580621333144
0.15211498548852778,-140.0730448649481,-50.91685807954842
0.39733194625497814,-5.445835039820836,12.189552702244974
0.06416931414772244,131.31036303260285,6.331158299163153
-0.45853344338209157,-30.393443595908316,-215.10327988870114
-0.30512823114699483,-132.9463058252776,-164.7940334478368
1.0466920938330249,69.00287697569627,88.5512935344424
0.7874829788157314,-68.60291210507799,24.921307760741282
-0.9942621082634683,-32.11247011761769,17.853117420223835
-0.7788694787308458,-23.533808031043126,-118.59186601537175
0.1133111966977182,196.45496750293262,-116.39954190972348
-1.473149853783038,32.67642979994058,-39.47602997454562
-0.9250467612725582,-76.49096132870893,53.33810346572698
-0.19738324191653947,14.085637695863149,222.48833328509997
-0.4163244210639672,25.869557735892933,123.787082177175
1.5820323735064228,89.83158265179837,62.79270023415451
-0.24813909971710216,-92.09891554962022,22.70720047041944
1.252930861752231,23.616951204412576,45.97166932252097
-0.488453984793262,82.53918773292955,-92.85725696702747
0.020715290743241473,-135.7319092419661,180.70829078517667
0.7507230617969481,56.232756730455236,51.04476157464
-0.9519261230003647,27.761044317983373,-48.30286055147426
1.107847835058988,-94.84799044135461,-168.46605422120103
1.5641283771995496,87.46799934317427,155.39544224943512
1.8549025070165162,95.11774997656543,-123.69918860364292
2.0078494426222617,49.051068936088384,195.32637392344606
1.595836231535086,-51.46812342773421,-24.120139221854124
1.086928426966978,46.32129759431022,-66.92396664380692
-0.7293228796298556,-121.74545338823586,54.49734387058256
-0.2638200937552517,-80.98539600826282,171.9800579473941
0.3197434973549505,-28.45739162270014,-197.01613103810448
0.4708652746219184,-34.40412308424958,84.6908701031676
-0.1820445492675032,-40.89557647386548,115.7894724760222
-1.2247733425132226,10.219660655596249,12.801600136502763
0.27824817330508483,87.7895514512612,-7.7752602586044315
0.19153221555685224,-1.1155095394843286,162.59990924532997
0.27405044402349604,-3.154034935425688,65.25723101680153
-1.570427377686381,25.761196896979634,76.18326559587219
-0.923788666613917,-96.83957840939753,-112.0242452870076
-1.507195404014889,20.428443583231104,-17.60472780308873
0.3536890516691032,-20.319345715916374,52.03575309120022
0.35346037143303316,91.97845247717183,44.42330340007692
-0.6178099618816265,-138.23103182078728,-112.47128521892114
0.31321649206655805,1.508659506713653,-137.6713419400371
-0.27246214921255013,54.559898638733,136.1062642643318
0.3415216284671894,-33.84449388991855,-68.94251055086968
-0.39821724066903474,-176.35749504447716,-63.48337921397482
0.9170008575890567,-13.284149060154427,-44.67255772009125
-0.8069448541914814,-301.550752657861,11.536616764231598
0.6104644325722385,95.30979346762265,96.28454900426264
0.6694767177881539,3.1385584164877676,-183.2395456937445
-0.59101422056536,-4.89615607338079,-14.583201707185584
-0.35982133847186576,29.645320582188706,134.02559630060932
0.7834777603495888,46.812468080325885,-180.926466058863
-0.14771844516683258,19.7242914493257,44.145931320884515
1.398092555634322,-21.66584739123897,96.62688583929734
0.2509299911390449,-38.28099214918028,-90.43623253109763
-0.5920196531726022,-16.15266429193525,181.35063537626354
-0.7272231693426067,60.0179978400267,-169.77680008539136
-0.8482347929077695,-64.32309446828116,-86.90482665060598
0.5390901758773956,68.62140757714488,302.64754418407864
0.45974339813651344,-142.53300814850732,-39.65775557514657
-0.3000440376942283,10.904920026304117,54.935845434065776
-0.848552865831475,119.98132683524803,-66.75524714393688
-0.6711701370795349,-27.207184723330318,110.57858908027531
-0.17398980077586296,-0.8383862145929628,-60.02939773200369
-0.7369338637441731,-119.93093854250097,-107.24339573569202
-1.011057811004449,3.555876982247911,-26.64562882591268
0.1196815577482488,-84.57181539111987,119.22159264816088
-1.826445237353548,-141.15351999691714,104.6944786003293
0.7669475732774753,70.97455489062283,-16.553438918354814
1.9387541840405509,-90.23734342745091,-114.79110554093874
-0.8217080512521041,-63.085669346847574,71.9940293930059
0.21303363583204957,-90.33459485405821,-125.71159256623692
-0.40867471563951846,199.1065030918876,-5.231499594606498
-0.31463394724101873,168.4049070364189,-42.506985200014874
0.9951211898051058,-172.94712902540493,2.8715421131043577
-0.539244045979213,54.84324160962218,40.434285769132984
-0.3270977515261945,102.29570138736183,11.128451594157458
0.7744924229015562,97.69918421663701,36.979457974775634
-0.26423836378482424,-23.14367051989882,-94.52072803922596
0.9109403098704614,-55.44898356996786,108.89935264780424
0.5746144705700155,-38.64192000495542,-100.48788028365139
1.2224105379165267,153.9862231519094,-54.92816559922504
1.2892553283469605,110.96659967925082,61.177522134675854
-0.3985819177581712,37.27667710896546,71.8860648369104
0.030104160281346593,-98.80808716972983,50.41182127516232
-0.25928345378032736,43.55762313998778,-45.14493425613234
-0.5267061847917001,-18.395633875364133,-28.633241261952634
0.12899354242113015,135.94089290204238,-54.9063248781197
-0.54566132653946,9.748041900592886,19.204361037596822
0.750191012239192,-32.51276038208743,-142.86220708720037
2.174386957324943,33.34097975315049,-1.6730713423999732
-0.7064888386708589,47.48672433964036,22.37543773313083
-0.13997363669539203,64.2295077369263,-149.54365617299118
0.10559641613474169,10.677670589059378,-194.8324818502054
0.1168068751079528,125.38339315362855,-102.33460639137546
0.992666360411896,-28.08301633900224,-19.626582040644376
0.22725786524483818,157.92954167506866,6.943333743835802
1.0093776383117408,-36.21917094298751,230.57771154788745
0.38995310109223585,134.98233342674317,-50.63375080264897
-0.44878525772532324,-176.89211598245933,74.78738982892882
-1.5334906700898419,-21.911609722994896,-24.713577883013762
-0.6313364753952134,60.49806985545479,23.76260039676465
-1.3309322385839661,-117.52315263926194,-44.14965783422404
-0.34994712161331687,-7.47239936286358,-288.8330093749018
0.41613303459841067,-126.42959498627846,-82.0521599632379
-0.7491094304136721,-134.16250621388622,-27.627537314105034
0.4628314169729247,1.2164566925986209,-17.26161063251692
0.18091255325307015,47.146199759822856,-68.22680071984935
0.3789574356949437,-195.0999369357734,13.95104301926061
-1.850866665286083,-68.73800719682531,-15.725107032803878
-0.8579329791506622,83.89877290772601,20.61964410905212
1.8057476997618243,106.96361953996798,95.95591724708136
-0.9700243754668204,2.016049683259354,-85.66244204370346
-0.4931799688409221,46.287872627366205,-69.33017946728134
-0.3771058472469271,101.71166577576925,114.41370298165103
-0.5402647367929948,-106.66376588845532,-61.92339550566188
0.9137758906280411,-10.041068781036763,95.42076840796375
1.3877531575960749,193.8061107443124,-67.62749748986344
0.45920050094035864,5.786627222094638,1.7002289528709469
-0.057929040600404026,81.39830374748199,-159.27950359032732
-0.7949684925376554,-85.27388941415693,87.50103259965613
-0.38861560626644814,94.30975101540568,175.07838121521723
-0.5257172978796285,-39.77882049210698,1.660384644762096
0.08177711936529963,-85.56642269403783,251.33595447822654
0.2163750887080256,56.099293292065234,32.76997243810425
0.5743459264285912,-68.49565744593309,134.34980324260675
-1.636699304602737,20.543302701864047,32.6202777867561
0.2823617002866515,-78.45492885700425,51.325511093226304
-0.5916971455285055,-15.306829654203954,112.04767659699384
0.6124204382496036,-104.39668998258547,-42.32479953110714
-0.5869926064888166,-30.084728313780555,47.10971596746481
0.6051645559352921,63.30886665306377,7.860097269443332
0.041709852363791926,-58.28411934347031,169.5653065174934
1.7451923011799888,-59.42660115927758,184.51307078725858
-0.8306863820417119,15.836550148350522,115.94410496806778
-0.4861217960421984,-146.6962562553918,82.83920673475997
1.7054590133989382,-75.11429788353794,-37.49180552272555
-0.17864133650683686,12.546496659309996,-76.07074327784225
0.005547763769739164,-242.0120109255194,-69.9647791532751
0.7441936278851607,-98.50377953031305,-63.38784336009744
1.8497505431822325,13.09076445047107,51.39904937346037
1.2664514269260405,4.962126650921649,42.24346753632177
0.01849507103338763,-135.49171506889633,-137.7369867621594
0.6142399796984882,0.7062659779904306,129.40915970138394
2.08081890074915,-37.931291036610695,138.2328923435198
0.14445684250303883,50.72377312095998,-97.4021743697646
-0.35187067674676503,4.131564307166911,-102.64096002314102
0.877063682870521,-8.311541368567097,70.30515874943187
0.5421371373151319,-151.6839570999907,-164.53496025915123
1.419763540704371,63.36081253118048,-0.33619531921518536
0.20041038999782676,-96.69169744281346,12.26001016775203
-2.0344628258399906,25.435483552140585,-18.470988406887653
0.22725863988418835,-3.0559207837144786,-20.070242180737612
0.0295078047398379,-115.53100429711192,-37.30371371596946
-1.045949517280782,141.17576072259686,-107.96676231192535
1.2628984230886466,34.24908599041878,84.04046018241475
-0.9278564986861668,141.13213846871025,-79.34824528221228
-0.06099528194933232,64.85411635864592,-89.6763390123614
-0.8524364547867402,-111.911408099589,-0.18554346295939467
0.2628438937504342,44.66663152672626,38.05077169543013
0.22944629380903428,38.31567143136217,15.69993083693986
0.7790256222334331,-185.88262828543185,-191.5708798688559
-0.9234720597089648,-59.390079486603355,46.56639196426876
-0.07953246371682184,-51.21594197175661,89.02070455847857
1.6307418464148584,-64.39097169638886,97.85288371318843
1.6843764990598609,-5.381077299937665,27.446868640649026
0.7685993462702293,-39.92212591020679,-113.48004195315333
1.3169797143172581,143.15690090119486,-155.95031313108484
-0.7885868248221902,-126.51389729810442,62.17254298284687
-0.682910939428052,-9.991877817338352,80.17925698292866
0.8319165278887004,-28.275655490028768,-125.97151659136216
3.38639761944407,7.888944168461472,-124.9192896447384
-1.4884116520596118,69.89515332567166,114.67277420713533
-0.311965685229402,-46.222275340700214,-91.2175050412694
-0.27405244002533546,-133.9085474535993,110.80704456696324
0.1714061946277097,-17.551777907155174,-39.926836861754815
-0.6648886061400227,51.78842066935139,11.438655514220297
0.11805701831739981,-30.196450854644286,-172.81866014428803
-0.2924237433095189,196.88512372428093,43.212900207659985
-0.2348157506471139,-105.5309523428148,-64.24483246430694
-1.1202944840463476,-45.18571479630248,164.60188642610737
0.32131570949396693,-21.98212353597981,-113.37225632755728
-0.4562596551050339,-37.750324523544144,-120.87790795911097
0.4831001851569475,152.386454695383,117.37954341570702
-0.8453963112152965,57.32793868092166,25.35213831840437
-1.4075776965049693,-89.33652374009046,177.46278884594474
-0.2695260920540295,-49.90006907483207,116.91907638140368
-0.5707176490995056,68.09397576388541,33.208480546957816
1.7149052095295556,26.55747590879977,-127.37130744658813
-0.7134232893663853,23.655233175403076,46.26672661651966
0.027327797499876752,171.55328778428282,8.064621772907179
-1.1261028205618153,-69.64822681535584,150.71269489521234
2.0363941418791605,-194.5000965041313,73.1961044296478
2.142495134022527,-45.13657872560146,-142.66916481628044
-0.7516225412729076,145.869474680056,-98.843303756627
1.2158102938439992,-111.34682133863525,-11.802139538063381
-1.6078329217497918,29.152208004745884,-36.02645307280384
0.8877550773493526,-56.31235064037696,139.85173159415208
-1.3892074464572635,38.25864194901823,98.32413010066719
0.43313140932477,-67.8467838526005,-8.073604333520276
0.09801296248481127,-169.53994168566598,47.065471442022975
-0.5941430173766001,109.337397653812,-13.17807719570587
0.6983579657523186,-28.66555357816565,-64.26379613453794
-0.7769744278731792,155.23856867770064,43.33364983994359
-0.8588398856271204,-61.49390163306331,55.0889640723358
-0.49314004311229,-122.07636547331593,-228.02141149793954
0.003718557142266927,-54.20017749716759,-151.79024545118267
0.35069044884129397,-7.572830305805281,-37.359267579630526
-1.0867526878638867,4.861324448804433,-119.6607028186835
0.6915493686247877,182.17996633217624,-28.7007632837376
1.2455319625492527,-130.38111487705092,-25.976826023820117
0.6401005817240092,237.15691939381992,63.35863348970694
-0.39616995796809684,47.83968932065293,73.75360683693677
-0.5820874724072131,50.84405794526603,-210.36447654903526
-0.7571451521567463,-139.12465622794122,-41.03813928826074
-0.21478893883018396,-82.56533762114991,-16.474091416272117
-1.0637780546971876,232.71396274064583,40.08390227591958
0.6122922089229815,120.33570453095459,-161.92934092567057
-1.510929396990798,54.274075101594256,237.76482791427463
0.7305912193400405,-150.43216220635688,-38.958972138829544
0.4108373823794559,-38.716625727097295,-148.71040482892676
0.294165676926603,119.45443599445935,77.81990007923
0.6433788412118173,17.145262271740304,132.73195218320552
-0.4088774406542698,17.78028781147919,-113.36145754153759
-1.1854046047367575,-303.04074882357,51.21972872573559
0.6085572655222958,-145.4098891920564,-81.47326749183571
0.8853438638085244,-95.94015175831252,-140.66604921013203
-1.1434166712986575,-76.16420094917913,-20.481256608100296
0.9807091353607851,92.02775428180504,-154.96466218524927
-0.8770897040733256,48.034929320599,-120.92836022798721
0.4624585704089252,29.22966531612224,-123.2504794231794
-0.05635022100592282,-8.019222674952843,-57.24346211642164
0.1414764338744821,5.3110358091182235,-180.63999299329538
-0.45872583848571247,24.68644376233369,96.13648631245056
0.6810675437425658,157.8833502727506,186.44964859088623
-0.9804747815557234,-120.24924456120156,-36.678494731515784
1.1078387110456367,23.86668901819991,-6.481274234252994
-0.4879006025354012,99.06712302557399,41.40682618562851
0.1697314381253746,93.77546380079383,91.07329247421609
0.6970898376751553,85.28967741939114,26.929132982728376
0.1759111500078396,-160.00503831215667,45.53135558533691
-0.7868736784302394,-172.9106031754543,27.466007444571865
-0.7885925917011918,-72.16500158758615,-83.37833380379097
-1.2769677064206366,-67.77859805368713,-199.44521401775143
0.25337631345629025,160.88850861390756,-26.3559029588261
-0.29697740183126087,-47.618598648344054,-36.124938204234844
-1.580518765821519,-6.248054952531609,-68.59647901217578
-0.7170617675391764,55.176710312078704,-40.38231875314215
1.3360380562778116,118.46600069679785,6.535354465870004
-0.7104546740802948,-22.735126454307405,45.715341141596824
-0.7064570584685705,188.1222654355703,40.39818345848488
0.0307860141571243,206.4134782779567,123.87902255811012
0.7728044663663958,-62.52897559724091,32.72064072536855
-1.0680954313940405,-18.035036797949868,-34.03591109643672
-0.922488925855019,-208.43250599807058,-153.84212865260258
0.49144354626406794,-24.405035165240246,-17.603397756835914
0.275867356577393,-81.54357956275582,-27.387562427326078
0.8963448351746085,-55.03566731274056,6.278801462059862
-0.6295224434673629,-105.60131904135123,-112.23465644676942
-0.9662022454033007,148.99656963489284,107.87098902871503
-1.52021403848401,79.7914771817522,123.27115633055814
1.0981242859470814,22.518818555216384,33.685254976508574
0.6840286985975298,-19.396177467443128,89.12225086345114
1.0649869143227946,-61.08639357472324,-39.19791734285191
-0.4442781908843907,-90.284899855039,-29.3688393038342
0.2851491851538304,102.60463095092737,102.66362719911182
0.3771565023267316,-6.764094911510007,-121.68840387610713
-1.038428212373044,-48.3741052165355,-115.0253826084616
0.33734494932669157,140.31298639525943,185.0444626274929
0.050568121619763526,116.52903616672448,-90.06780882782131
-0.5349636032994198,73.27383059169873,126.18976431655354
1.0608768824689991,73.6855821646013,-14.309522648845343
0.18843590448773956,-28.620064511992314,84.85445039475289
-0.16089361961023715,60.37192117826245,-42.41600355269478
0.42688920453998414,-39.78566072010674,57.07136970919032
1.0184217111307734,-11.066183343569687,41.43983678935635
-0.21287957554381562,58.164142805191865,30.77179811113745
0.5351704042578121,-48.94669866496686,46.2029370889277
-0.7723990526291347,-77.18645572065455,-116.21898523291279
0.19719389720153105,-14.188111366357296,15.267600681295775
-0.47619728489354435,-41.164053473817134,17.01475555239932
1.1067285850811417,-239.7098972690442,-133.38864410192159
0.45937705306406934,191.82169342262068,-17.86754855428809
-1.6251862337490879,86.53302132174612,81.70499172517998
-1.6674454353140324,53.246586470307655,35.17336642709418
0.2579625707407805,-130.2406933642295,-96.21910342607094
0.16076018929828137,27.310065851746185,-7.394829728135459
-0.1463075356381423,123.88640009036382,87.5157632620159
-1.2427944339719694,21.163809897181473,24.837876565627308
2.568655779163788,100.99830843112403,-158.2648435292899
-0.5450904573327962,-54.41469750453235,106.38268338015567
1.5750381264548248,-30.253005944201146,73.94143359201412
-0.7315462778794058,123.7194296598298,20.041705014722393
0.6731924450935336,-30.286272372815777,-42.54515981650893
1.5087415732208338,-58.291431637344274,-23.21851009146449
-1.6235133890354276,116.73439196677668,-49.755480752427836
0.01458758246026684,36.4990416102319,42.62992991764559
0.9406736327674716,138.64854681939173,175.00273059435236
-0.7660808335853303,63.03566413580977,86.1068329153662
-1.057069420242285,32.90251465738116,68.04198074218341
-0.29347761953987533,-224.33742737156507,-118.82773397564861
-0.7480127263903835,-63.968524967966914,57.98953160143982
-1.8150983421184421,-20.79623983905445,-74.23714514901884
-0.5992509677108933,-85.45131542496864,24.692679488397605
-1.1939997178483535,107.8115636342977,44.86481239745333
1.1196932400210156,-102.47655966483474,84.78045797435905
1.147361654583987,-61.55263371735202,1.189036262850487
1.3809927485441646,89.43532880962114,94.90311286569438
-0.5735230759029496,-55.71944946423888,60.22863111883083
2.727538142569713,-81.10930176259521,74.60204774575962
0.6849911557355439,35.66200848601772,-44.69590570498113
-0.14556750305365654,-58.71697283487261,-23.65067822160872
0.9737410141033752,98.50675241330512,3.0301961716964945
0.357854307201918,-111.7922260794695,-82.4597780153133
-2.782495209528852,-114.64989279735293,-75.65632004756601
-0.3198553466062583,-131.70941400385968,6.614022131756321
-0.1497180058867152,-85.36869002099561,-73.376527796619
-0.9313525077634419,202.55588381847252,-40.530052577388965
0.3832681068739492,-80.66838001999204,-49.98789926894421
0.19879759634456184,-89.05499906109979,248.62391240908877
0.997725810887365,-44.7741322914264,177.64320263462622
-0.8202331160701434,-49.039203040445464,-104.41948446123341
-0.2106045764967155,-212.83870612044464,0.9012311149208863
0.974130188195366,100.78838798595417,12.110363249758919
1.3376268038798242,35.29216646644826,-16.71115916765322
-0.8170488202380117,19.80277273322778,89.75732106496801
0.052353905177394786,-39.38353387015588,-10.721440825159569
0.880424862113588,-143.0452193647289,-21.1664664885371
0.015420699055978608,168.40118856087344,-48.18016077692282
0.6659681928837065,-61.799332105697424,-43.233293414434506
-0.39805419021696375,158.08077323477494,-8.194025923625865
0.7287368405111228,27.963079960082815,-9.802430271191644
0.35166045608600244,-101.18893664463056,-1.8565104021661343
-0.7259135298209018,-50.291378553761504,-36.600591716415536
-0.22704316526091295,152.69519568650074,-30.952371109962485
-1.896796588568632,-18.955744775554788,-30.024299658598064
-0.10756144450296644,20.647098395547914,136.29091881285896
0.8646888717380702,37.237812408884956,88.87985778992062
0.21781716557238048,-81.87085718134972,-1.9084585816979458
-0.31758236835423315,18.638769004748486,48.353611864918925
0.39860557924225914,-18.738826956327948,165.9738237335132
-0.742037036029436,-2.2538950060251173,70.97512243291804
0.5661138085284768,-61.74125344531814,144.48357086128797
1.995268239859803,-156.03954563062524,103.39263524447004
-0.14355310591044312,157.46136076938683,40.39302755702764
1.284359304473869,-19.929003248576844,0.023542145453529187
-2.3200492186756594,-111.41892450335939,34.43072529640026
-0.035600280308895345,110.30711038214677,-50.05337834135833
0.48964714275135424,-44.05504178224321,38.664150335149785
-0.30433040137075823,-92.36833911508556,54.87281739858981
0.03790762974125907,28.873355338174672,-118.50292635462655
-0.6512167120174359,-118.6636468538535,117.43087626335407
0.1452942175886601,-215.20593564705393,-29.822790722759734
0.016727962456274167,64.60092289226037,-306.09660866445927
-0.25817446171929115,-105.31078306029443,79.55360990246372
-0.2758761527489396,54.132287273988446,-11.366872781163693
-1.4290114054363119,63.066038375206666,-160.30426704905415
-0.608347185001027,99.39788048360711,65.63909786676312
-0.1765265680328052,-253.6865154694702,-46.98656360931645
0.913311022668043,-69.43992994169615,-96.3539488357659
1.7600725971339524,175.00912409036053,-111.98845162303859
-0.07513067329464979,-0.8391527926824984,-63.35745611395992
-0.7334531462009539,-85.20844818339832,45.5767737326669
0.30614676906059035,-106.5967443416838,-126.81362220423958
-0.8389564989303958,-17.942728151966055,58.02810260825897
-0.298393932616102,-8.716725288457768,-29.38759537915762
0.01747525640635047,24.954755612326824,45.52880134035713
-0.025986863384388065,-143.14292700773137,132.0869337243352
0.32066380145478035,-22.75653629295987,-187.87634302216964
1.0675348634612818,104.94882401485681,155.41366342455092
-1.691693732109476,-176.6607567278776,79.89192264977692
0.09164041349337326,-75.46510269730935,179.7012575632908
0.05349825677590344,119.7649534861918,-112.39694005789511
2.4143817418915265,-9.683787028273255,56.687186295147676
-0.8374125226070818,3.35777604112892,62.8944338765016
1.8306980645522706,56.6695883928321,-27.381035281774885
-0.4728759156144037,-96.72940094876998,-3.7811735205412256
-1.4322250316825555,82.73880553260071,10.310568755060427
0.793944364446856,44.11213849658904,-9.211115016904827
0.1288995903260847,3.033500930637615,-217.43175758840292
0.16433854757425018,-165.84002564391915,-60.815488573715335
0.12533443174177278,-90.59104378883957,-99.79170976265873
-0.3880159223917106,66.50718121697342,-93.74948684742557
0.8901978200384316,75.18220537202265,-57.10920519596212
-1.0261804904901624,-24.494693714072966,140.92094533135585
0.2027993139758255,-54.131579169826516,80.9257165268713
1.1436766851195055,-57.47483874981859,82.49693177876706
1.100680081147665,-143.95716279628024,222.78395087207298
0.22265793809199977,-105.87918178070626,215.1836676567521
-0.3414444317500126,-75.8410084320326,82.81433438398984
-0.07679521918842089,-58.52767900694457,-99.68042457612786
-1.63841662493595,-47.09416022717526,84.28614843829317
-0.4239020961067808,77.91593350544875,-31.291917121268646
-0.5422425591378452,-167.42992184687066,124.9841446624519
0.44928492697850153,97.39237311531839,78.44865458671875
-0.28846055044471114,-146.1066357685121,43.546768736282786
-1.454050596876464,10.665607796858495,20.662790185499382
-0.4677928492927827,21.15017624604928,-52.61313850868975
0.6087366750804157,-86.91139310667907,-101.85329619942551
0.258260342154497,-123.06846171889862,-19.500569617614065
0.39039271047195345,1.2785841740175434,54.53075509918167
0.7349076182237559,-87.45690969735158,47.28190290243638
-1.1559325389591641,71.3081629474345,-3.1059966454044625
0.8408867940694044,39.47052153569471,-55.22493712427434
0.11216935946048973,151.15345884516003,53.14689852969716
-0.6001663250440994,-103.10908311667997,48.42913548007022
0.9876278268198778,26.844054356161468,235.416051697556
1.5013759359785834,-54.810530626544754,179.22673456461965
-0.1832091589192548,33.17746908669391,99.64181424580387
-0.10609083546120719,106.00459854417741,-9.301551765776994
-0.4709550550428376,-132.95468648930128,-340.1280721335691
2.637174131000896,80.34650161700128,-91.12645612083622
0.028653989964918865,127.09366983243535,-23.647302755113593
-0.786743363963177,-260.4196560868454,-94.7539183622225
0.9373192485241874,-106.94120995442078,-80.7283728995191
0.4408355653710183,-9.32055006222076,127.35046304425022
-0.8366381027762235,53.75685455436926,70.67138457231468
0.016179999994890386,21.562327945481805,-104.0345541291026
2.90219816147861,-114.18024346634807,59.40518085723456
0.6082506955095341,36.73981466960792,56.59827542981108
0.47695684222142204,-134.22709640485618,20.760222600569218
-1.739113210372613,-51.00907483358228,-216.84290064959174
1.1961746643239315,95.42947108008737,-141.80187596824345
-0.23625208991506003,-16.135080686329424,-161.84503352197018
-1.7702069764703636,96.94962431497864,-51.59509528929357
0.056240109998352196,-100.0829066813503,198.9345679322451
0.3146972715359257,19.456291526715795,5.02091421682467
0.030822921794881428,-21.560758829040036,-113.52203817139073
-0.9027568386220003,43.60750102276765,-78.74966458010846
1.6817008182419773,110.12701189860637,-65.15941420151398
-0.051689778665952715,-98.98253049986764,-59.456510790587316
-0.9085386191933833,-107.32273323886368,-6.669911208915447
0.17667535835001674,77.79083916801252,47.3020056382749
0.7096820386720557,-107.89668676012067,-51.647617651267616
0.9355561828637683,-133.66862723800566,204.15424721244653
-1.671809339834622,-156.56846510012673,9.720225958209145
1.2405093301231116,223.00171394524503,-130.27621453235886
-0.5431786616574054,-12.747474098108441,13.078395332165732
-1.4676108774780356,-71.73327866108062,98.94399532635104
0.02716528483389193,-24.304153529352575,-26.350397376290957
0.16669783325823756,-8.47155567187212,71.48491083906562
0.41039027068844464,-161.8684414186188,-265.80514930369026
0.5629642956474628,-190.9018915564809,-80.52677396792113
0.16031246578467706,23.36811151536183,38.149220261564366
0.6462952831241958,-101.573196462456,-38.161560973565905
-0.9218883607814905,-10.780244695963107,48.53146461729396
0.05392293077407809,-247.4724832378596,-67.60336666994651
-0.25939982173710807,-76.88739975811005,-13.039967923015777
0.49505027670963964,56.61462574193366,51.73394560054898
-0.7943459274592798,-1.610036102036468,-14.590345152990333
0.7998092261797255,20.78093430050857,108.94972117410529
-0.4304015143481518,-171.92264692978455,159.9065746236891
1.6536530590961611,145.35745329298476,47.901154423563696
2.4384778858465688,10.838379300089663,72.55796028748746
0.07305048140827326,-73.20611696900808,118.40151228359753
-0.4878193321152407,25.79284713950245,40.60066610320667
0.9507050680043654,111.7984424554411,-10.253431299186206
2.3252543844392957,106.56876972338354,80.58339869188264
2.504697967834145,29.222589892832772,-96.33093580770145
-2.7777077497936227,-120.69713110987861,38.12005231064005
-1.8437256978319518,13.143876586397951,37.858004644278104
1.4301182240326873,45.851106564247196,47.81429760204209
-2.2268562056837786,-84.15156050222325,83.6950099629249
1.6915457000797496,31.685378466627512,-37.82671038250885
-0.024810793276894495,-81.46870592652078,-71.64428962455366
-0.27127497914974946,95.97227845589094,95.79269078437694
0.6527160611258871,67.80994350294563,-70.10545465170198
0.4431891000396353,-31.134859115731572,-89.24172959343589
-0.20819476324987873,68.67950336277794,26.945909480491366
0.3058243525940919,3.977490892240144,-136.14554089130223
-0.7407864023750788,-67.96376892554812,-44.76939555986599
-2.008634036653913,-145.76113336077944,129.05825375493214
1.0026555917866384,-54.253280234965985,-43.9353850345179
1.6400655031844862,60.673364192727,-70.05307154819947
-1.4649070152378458,7.653296857251167,151.41346756822597
-1.11975294924586,-206.2023795566781,-122.23891628590331
-0.1320140209913952,87.47556187566273,204.49277320428706
0.823366120170219,159.77308391049718,35.080539930119016
-0.9174990034005506,-97.17685180492806,195.13887075981137
-1.1334293253700942,196.937327163377,106.76631157207832
0.367970351176794,-12.192149104509538,125.54211671881117
1.0527054928036144,-57.034884279065146,21.096884045037402
-1.4363717903451103,-65.73004703364639,94.38539828376989
0.7271663154378659,-79.80871877649567,86.81451447618291
-0.4635608536091194,108.58391344729723,42.44263611153076
-0.019541920779671255,-131.83120232707827,-184.31501024735783
1.6490863730021426,-143.77502467001787,-68.29709327739747
-2.1101889134712777,-59.12335630088774,50.578123009091
-0.33465997701716027,35.671580451913094,168.54629230870663
1.362767545003172,38.737341181021385,-58.658799279978254
0.5011230343740529,222.26106762861585,-68.2050731136631
-0.4101661590052966,23.017927357827293,166.9342450894584
1.3168050530293183,-53.07571604101607,19.36880480913468
-0.7257143100922534,108.06610548323414,100.68293248924832
1.3121970718663032,-105.54869694900366,-97.74132562208064
-0.32109510036084143,12.261791885749538,-72.06561786640782
0.8564028386719076,-165.94148594491105,-95.61179583125498
-1.7927964316908735,-30.48583067754756,112.80063791983774
-1.3420401809324338,69.29112773065847,-88.3373094654466
0.7086516436574988,-36.471387811049006,13.978496234723755
-0.2766054657834006,-44.2383894806625,-142.6449067103742
-0.3839373989392141,90.87427686755719,-71.75448551165364
-2.4247094512094463,-57.57489228750706,28.735317302716346
-1.0717278555447318,-36.162672501311654,19.397772856878447
-0.27161213780760335,-14.792424663619974,74.14724331463903
0.4669546732136642,174.9918646980509,-276.5889839365999
0.34567829185483673,-36.872140935709176,166.47193907004385
0.4969501358012784,-27.215579836646402,-58.93289253465862
-0.20374893926933801,-58.100860241577514,37.65917464695743
0.14818478896895662,-79.88105528384509,55.375797458845746
1.3346252675924555,-134.73363846865553,59.705805414072145
1.6568030092700423,-138.76699735327324,-229.8057389349055
1.1146253991874193,-156.51718441250864,-149.4410542506669
-0.06100316451089297,-83.52123950714774,24.09580141444311
0.5262681528902811,33.048299108028026,-64.29626660066619
0.8125094374099443,70.19310056737288,-6.828533154127671
-0.9640422671985855,-72.0689410618743,-48.08779579171424
-0.06777577725761107,-0.5340479797085266,14.18601710384566
-1.306684759032081,-52.3483356712013,52.55999422269454
1.3657052896471045,-64.82903853793069,144.6231880523748
-0.500607166413784,-114.21458931406316,11.045290090108022
0.12676490222651332,-35.40312181120818,-184.38850763178672
-0.3552675960451765,-160.65693528385881,-17.800272546596783
-0.05939327935786019,-7.849284668166864,23.568577778081785
-0.3815725463046427,196.4536518087196,70.02219802940036
0.724833885319447,78.31554367668072,52.53559958706416
0.010632953553031314,-116.84515956112229,-132.69022757591645
0.35222206501830117,16.848310690678815,26.069138198399976
-0.34637636121325693,-25.764638196656957,121.1834095613911
-0.6784072448064762,-163.33022924949105,-99.391152652254
-0.6174159787227841,-89.1771485032862,-71.22460067393405
1.4419382650959356,188.80136899754368,-46.665202796622815
-1.6205516845919774,100.65537107395667,-29.485247192137205
-0.36966207785434874,-20.37186926181843,-48.28343657414633
0.7533157638120589,-1.3173012450511519,-67.02790679360734
0.41914512038089263,4.792457512548781,-67.89603052497111
-0.43074064571404175,-10.29123080025684,-63.14036269645318
0.8871778966434741,188.7093317262923,-39.70302476712552
0.7095457483067719,37.54117174288522,-21.22416347474511
-0.7228427112657488,31.706643705939523,-155.6684433004684
-0.3414608051810675,47.59211647317165,-0.9128776587173988
-0.6810767113814212,-138.0448576974177,-146.07709082493287
0.7722833335473217,-212.97501049388256,-52.37931231600545
1.0848762918465282,22.14115918350556,-40.33920996568736
2.7618014784373717,-114.10800503236538,-9.575079679148194
-0.21313102475662665,5.134697726087032,108.29541484813447
0.6061779163743787,78.00767038783843,-3.231993540482307
0.5145233060487182,-95.92930256370772,-113.4857198671196
-0.06688125453559994,65.63533696473759,54.56701448269959
0.061622572963170884,52.103889844561394,-99.86283571089454
0.11851403393846609,-107.03323036416408,-149.1746096661631
0.03330812829016929,131.80009679767792,41.14138228912764
0.7464793839989475,59.005467193804826,101.37148047425251
0.10900876648442746,35.2753833661164,142.84994781483547
-1.0187601679410996,20.575675971716763,39.425038009487864
-0.5779822204509187,48.602465367262496,-25.48529474003204
0.09394893245261834,-85.67839868305305,23.78938965672147
-0.8003196784255006,-111.4195113864296,-158.53003338644507
-2.751071959598908,-78.43698331024804,-14.778911186999224
-2.916492138160864,-21.97112491323173,97.46401836166253
-1.1311899835455703,6.446590743205448,-101.0127018296647
-0.11430860939505863,-66.3161314973225,56.52730932658652
-0.5691796825870687,-11.409934818268601,154.66671610328365
-0.4762512132254563,-47.17835278562642,-135.9391029507065
0.00048763503297918757,57.77406170965761,22.33741909955058
-0.373362048958372,-25.823376572744305,-37.06091622353501
0.11796623701368725,-144.09115436292598,117.94280529524899
-0.6965200221847173,-11.844667646376864,-72.34658978581453
1.3620289690671736,-41.26682025874376,8.453265981718939
0.6179042695227955,-21.863169180980584,13.974875048318367
0.12075417071473277,41.70786595495747,-185.92439721278677
0.5615179680509436,-100.05103333544258,-16.788212812733093
-0.6844671205516815,173.05645864536265,-169.01630995288775
2.2284129161838395,16.092690901900962,31.79719066936295
-1.3652188712483115,-153.12541039689424,-254.4731538443286
-0.7752868315459929,-48.382294142943366,-80.3572791050857
-1.1796201919055798,-13.494853983843438,61.899972238386795
-0.3635655519989975,108.07396796826521,-6.810920107657228
0.42905009433368,71.75475639513039,74.2871457174997
-0.42034179819209605,-64.23771422609246,54.136377639260736
-0.009728878140326667,-18.51054533688413,-38.37902284813158
1.2511593689462723,23.762687501902814,1.3622607316558737
-0.13462134108840446,-43.65941496397922,-191.66008548878267
-1.8190583484815313,-42.05085350664331,12.416332149582184
-1.2431586447028449,-185.4244746032927,5.805941843048091
0.7889871265249391,-53.50295110269154,-151.68011503785948
-0.08345601437512609,219.1783355355065,5.049343182525602
0.5527613430499202,-32.41720497610718,218.7023492856377
-0.2368652418841839,-61.19525548805589,-64.88630644844542
-0.24461220429537311,-129.82143871193495,-83.54122191965288
0.5332209340988892,-24.77836847372678,96.77301303879982
-0.13012939486278716,79.50825745699822,130.03841601068063
0.5444423094977694,-42.86795635919952,-217.65575287288738
-0.729198602164622,-2.1574510641752,-26.065384719126044
-1.1113652566832015,-24.880266562192926,111.14766933966077
-0.4236274293271074,283.04882274815685,-30.00549408891699
-1.86385577717922,-31.52186394545431,237.24883070626223
-0.12254770210369546,121.27994766826326,-237.90531076309654
-0.8983580134898393,-245.0070919866977,111.69162970184038
-1.1783753978650235,-105.88980675375859,5.251749164012703
0.7867463175560458,-70.54675421280326,-184.06356732039086
0.93843195446886,-60.01655186477759,170.91033764276415
-0.7077388918767447,31.633523011619303,163.12685192147313
0.7720565124476245,-114.11133414665385,138.5651404687029
-1.4711189201872916,12.108478398014622,-64.64135565939043
0.37345772463268695,154.45178421439735,26.11889325899565
2.651589693629259,-83.1617898325115,-59.55062739618428
0.30702250697189715,-39.39381107659209,17.159218387605097
1.2497706337259327,-153.42812310227814,-111.30461200854427
1.3620314652273093,-107.11955207941217,56.256148813942055
-0.7487286999654235,132.8125790807476,-96.50330010730873
-0.24641623113595953,156.66632760524612,5.738009835097988
0.6170958058396204,5.704878781567523,116.12137794191186
0.4427913726575033,-41.29010624949207,61.99648042039646
-0.6116099339699037,54.754520474055255,-178.70110751166942
-1.6215497343669212,-118.00442017670385,123.01064661150482
-0.47327038453562836,-208.87045839116004,128.8106167145592
-0.07081307453867354,48.538949186051624,-250.185846133961
-0.01567299698111671,-33.836687723546966,89.22224841926023
-0.6644210831448095,42.80909442940999,43.33457403363264
0.7053373127243775,64.34059131552681,-8.803713270368402
-0.578591974823606,43.15020934800831,57.80997141853986
0.44667174819717087,-27.800571373258325,19.67489452958929
-0.10924547755603678,-101.61500342588184,-113.13865724252736
0.2590155327685625,-165.32890614769235,58.035834163435084
-0.8485602384818615,-32.21788018216334,54.40905801106016
0.013736088641984164,-75.97565026712083,78.79224840906647
-1.469432235579111,46.97539385367716,-37.35882972991222
1.2419095811557423,-175.05599069053147,-151.06676227457862
-0.08084074079823791,40.894227919372064,27.77417088035981
-0.38248751625408,106.6940609305272,59.24621507076977
1.3950246739635837,-77.82133383710588,18.5333721209846
1.3380488870936345,-167.18413638523822,59.18519043976352
0.7601335433148346,55.816279807105495,-32.73928320391894
-0.5931504970038675,113.52638798054495,194.78429307924154
0.040516559025704245,-27.353624416823507,13.556843224720538
0.13627887010551487,-22.470123131897452,62.6488614136689
1.0098612452289375,-100.07424800381759,-58.20204322125316
1.6862305898838486,-185.48620322560961,-98.35369433170264
-0.21507277889399465,98.38283111875852,14.604565403221365
-0.7480750412150257,105.6878518574236,-11.7925464362685
0.2676112607838176,162.50309346727215,-174.2597067326764
1.5089121888633068,-16.93801452675592,-16.92471249937496
