429.8885012674717,366.7262813717357,498.89354595054283
604.9651537653283,567.0265701142185,499.3229423568216
681.8913579994017,464.6964133214743,499.54377834343205
501.64559267810756,557.8097354156005,499.2108043348908
497.0176493240925,563.4731499639012,499.7423069581336
433.6714491298334,485.51261303365203,499.57244266114486
360.0638001379265,486.948139840488,501.44524613545923
500.05914420091494,606.5377088936978,500.6661451342056
530.2306125798291,526.510232498866,498.760838469256
610.1028162947368,556.7745259530024,498.1027573390501
642.36510756782,446.257244472086,499.9437803733652
401.85106000880893,429.4396330569024,501.0683991687366
393.31785364813084,379.4432988944711,499.9654002002761
397.07987639903433,462.1974566292609,499.9164119773591
618.0014475236582,427.35507248947886,500.0728601945386
526.9974985357371,458.54340478476064,499.91457856511227
590.9225736558977,550.5752377386436,500.5302438953651
376.00236180384724,377.19042732796595,502.20089657489297
609.366246453266,440.40572382396937,499.70424987695645
375.1269850379658,266.56596524635086,499.96609126400216
758.0433244151059,503.8029803761885,499.73533757077917
435.5446817466369,467.84240372286047,501.45473106801217
412.50868606835286,505.17787305742445,500.83684068005175
617.0802024275614,639.2859218967399,500.1145372730161
665.0094495319895,575.1689568511345,498.22591738740164
568.1870017968927,470.0987587087229,498.60790873254575
400.5289762427675,633.4215930576938,498.5090305781029
582.6050000865991,473.4432420523176,498.4636076865327
223.1469084525918,459.550326797354,500.27207622391865
569.04728516007,640.4822332639528,499.83170269694534
558.9987354798233,431.33408494254945,499.64876059665073
360.6032741120976,490.5071491933404,501.7004149920163
548.7969362730458,327.4118751458352,501.3803555406375
578.8355066110612,315.1090610563216,500.70927501706075
477.73087323555586,456.49054459399457,501.5854073453474
458.3902857879383,599.3830912786125,499.58521285416725
558.7785748564568,517.392346760102,501.66801000307396
396.3921193338799,620.723895672996,501.44598513619457
372.530370657496,393.08612656700654,500.9200462751526
440.1057779050521,530.28458567495,498.83310834136694
403.1003779616214,362.8497914967513,499.3206290652182
481.16066514958885,389.01870124607865,499.76313944387044
645.2828847230329,366.5889678467255,500.0874091067441
848.4499149899233,448.72479786118134,500.6752873242059
627.5284407111341,341.9225618885551,500.93892224032885
351.45127781414897,591.2866282222375,500.65633109319236
661.343589722047,672.8102479146976,501.2954543782144
619.4651400157721,444.45950291156777,500.10237073962173
566.8605948674746,461.40250885151363,500.62006527875786
629.4146673281074,456.1216159898369,502.1057002472099
514.798464274587,549.6601676460533,501.90023672244
575.1938545706485,208.21506349819674,499.33827459171556
550.1420798384748,637.0831798407874,499.814083316369
704.7736661519989,573.4987322518152,500.7961336198357
591.1236330274511,558.6329902235772,500.31887189561746
513.4655961371898,507.04127960376366,500.4796760096474
416.4557296361065,592.6667879138462,500.0663011494078
573.1806342365012,280.0591098839671,499.68708247423285
482.58543904160535,433.6817909621718,501.0470096206407
716.4917252320527,503.98664440249644,500.3247348912161
564.211297480213,566.7943857990169,499.30124601376133
364.47434057304486,519.494554934278,499.454586798733
556.0133309350482,612.9240959960199,499.33046305846347
625.3181535143352,405.99984587880044,500.72443804597583
356.90451159386276,360.96901504774917,500.5634906481022
506.77964500818644,524.1255215786862,501.5608867923512
472.30866328806223,408.55141463154865,501.91498916952986
571.434604953223,303.22465778266496,501.56851765792703
618.6859958077539,420.22237636939616,500.5924828273574
718.5176201908739,615.4090728082614,501.152620477274
467.83017214350804,429.23810370690745,500.5609491851804
521.7472995240598,291.86584762126154,500.54115461039595
439.7744174907771,403.71380349927705,498.17579423175386
663.4851322294155,669.5253251343916,500.9909907856258
503.0677573821354,476.9341597526127,501.29921345448315
421.3174155596052,619.0784791485344,500.1458004353403
353.63557395454666,470.8768205910221,498.7202761888997
251.74779161195363,664.5326277410574,500.1157616972693
470.6326374523816,495.0499188930155,499.35173755072867
576.0641705918988,446.9403402652687,499.5683137834069
609.8947673804056,404.9193794357384,501.0391873897598
478.75483123283675,446.7719650115115,500.0325884989105
443.9777315450878,418.091252932197,500.3933502305832
685.5286441949709,440.70152091958687,498.4701744783075
537.105286111685,450.8034546189649,498.0252686933365
491.252726039225,355.3587142122873,500.92195321515607
493.2482030012088,335.3725125461913,498.76253880228325
497.7485677898513,497.9195507525407,499.4369932106967
567.6893041350982,550.7488906431169,500.83422761331207
569.056185317501,477.3552340888673,499.8213899396488
478.4048530528194,600.7981342368088,500.1239898551733
375.74618160011914,396.9728498407615,500.68417813584176
492.00974031691646,428.8334118120365,498.91143552966344
501.4491720411508,682.9011397191113,500.1608424889319
575.7238069371915,523.6940550670178,501.5466814890478
422.37437772282385,519.2672491248428,501.48473010518296
389.7264928331409,469.3113799893499,499.8901194019053
565.3880643027697,402.7646642757156,500.49017194867685
425.9615246104786,384.3161434536228,500.9866673436326
554.3869952973816,354.91578590280716,500.3515407434983
476.8436708128759,591.5215570061401,500.6798111888302
540.1143436336607,583.0401935578152,499.97632993499235
544.1534374270046,724.4152599419199,499.2549383988043
389.31169974695587,583.0025690387685,500.29964425652304
488.09157742038934,738.4452160467026,500.51733756319805
532.074860779255,459.0335522794719,499.8465836629024
478.2914532106202,475.35424365920505,498.53430497421203
616.8763128448326,443.5967139757727,500.9168360003282
582.3351193882485,470.41910060707846,498.9599160438576
352.41589103385843,487.385696035402,500.67794097133276
515.4348645627833,753.5931903293167,500.35117924180946
501.1452473690184,495.7668064528527,500.3375850647056
359.8152207276581,390.17316559144166,497.69665593080106
469.44744303428536,464.5038914750683,499.47937364584044
676.1351883408325,509.02473428399145,498.8887895231756
602.3975541758382,563.3875046858308,500.30360671320386
464.080302704991,536.4837960961511,499.113470488986
500.7008210703997,577.1904938364692,501.39433400573125
610.6966042232453,545.2381283028939,500.3133190983065
422.9901874745717,518.3475821938771,500.4185972953773
410.5262541768891,495.6644978143629,498.06679993282347
637.5347203019041,437.0721067400749,499.9573035581036
562.1858655581685,478.0189235822283,497.4732433516044
424.9036797928446,407.96766345943024,501.47561716706383
429.226092378175,595.1726906691845,500.79088734184865
567.6964934486713,422.9210879916021,500.9556234898288
424.95648791498667,525.8818470903807,500.7302253462506
520.3502195553084,686.6114287389626,500.3399658475736
438.4823971154211,477.98030863681794,498.1349741217282
633.110989590117,415.0083101866503,499.77074813133214
399.5596123588911,395.9125501163114,500.05630422097937
467.7754475279296,419.84028692565374,502.4537096302844
560.1357633128637,490.1928461292032,499.4211335822179
412.9930764355555,471.42985899860713,498.8447820972852
471.11332208417525,514.345422525351,500.0929278847045
543.2236001333666,452.82971189871074,500.65636560330495
629.6456642060966,542.4655131312637,500.4966725165571
622.0780434449433,428.1377478209765,497.5178660582892
532.7847586796336,486.77743112835697,499.5701115266813
540.0229473925125,510.06885016821406,499.5735753819354
658.6477368769234,635.6513839991512,500.9725034603958
304.6225633145994,585.6061613667767,500.65698433454514
366.7985441913877,509.8421610250393,499.8779155802755
453.4654340576194,451.46534999772547,498.7482560386584
390.64137066534727,564.4963420564471,499.0020236337927
617.1654576058952,411.06625899283966,501.4005953117734
383.7589019889546,656.8554791651035,499.09078972257214
695.9313283816488,255.27460922406257,500.4992667549696
653.6788455242497,430.343869258472,498.80823686679406
638.676761452667,719.5750216037306,498.79081802052184
447.07414419307145,520.1760653058946,500.1214942995918
704.1451759349385,534.4084473385306,499.99607650930693
616.5112921176597,662.8469998540197,498.7254380891303
477.54420588238156,337.5988169372575,501.60316063285626
602.0022742720222,311.25039664656697,499.41985202918625
551.9328562525617,467.23543092949234,501.30142303474355
472.2950198657198,569.1510669070552,497.6547579143341
296.0625800952789,662.0355356983625,498.7466521801366
552.0133652113409,351.8713258176864,500.54560170432507
657.7769235916396,450.3043456807841,499.9508854529259
646.7256495846541,426.93123406731667,499.9614448411226
473.4195729238678,497.7754905779515,500.6750286316616
414.02708803968954,398.36577033544404,500.32604355908734
513.8860193922677,383.89615036194436,500.7236996412336
658.4147652088706,331.8099942311569,500.7759026171658
542.941890600536,698.8073892138096,499.09015500666203
447.0124826550455,439.27088069599336,500.1067667894307
490.1041627665914,489.16749524588204,500.2805923069114
566.8136304831505,576.6970080049505,500.1007072784357
671.2526157027969,400.11427523641305,498.01915153122945
474.5794516992506,370.54394296557365,501.81721832900115
483.3309619798239,377.81734054979995,501.16746125280963
528.9446248722462,430.66293540888523,500.27420189818065
530.1380175288888,468.2520218836255,500.5659287098969
442.0246804637828,374.585869548528,498.3975385279762
512.5546174767576,526.6048571008712,499.46277475658445
672.3618564064857,521.6122871058491,500.1158765239367
537.4252433667533,459.5741484319844,499.68849002094123
607.7357058665381,584.6861406451212,499.2306549284964
567.2831666935859,544.7005807094688,499.2466287883372
493.31875185308337,358.3687476799315,499.85343794783347
463.5574307151404,565.2514875533747,498.87661147073203
250.68992659054302,278.4296085868586,499.91408168208255
559.8161978948691,475.9807986682741,499.0910078407778
626.1999905157495,509.2093516463803,499.71787630349394
470.54528570721243,397.48093250825104,499.47496136512945
332.1405459640855,485.0425737875386,500.45252573657115
409.94435561466486,352.51801197714775,499.2619135897342
619.5641680458091,485.5804598434608,500.45994356788293
406.748567278367,603.3471700844108,499.425616396087
449.86915623988796,608.9938559018817,499.7309364065212
610.8011550505121,387.7270824622366,499.7328444873678
511.0210108126498,474.5042421424583,502.75406036163577
465.32214569799527,433.51812397736796,499.476816378833
504.75629397859484,605.550107160623,498.8676764614117
585.8490305343435,351.99616341663426,500.84749943823766
425.0859663676507,435.0095581815863,498.8866253326971
485.2921317914344,579.5343974136265,499.0513677404709
536.2751085182981,570.6749104439417,499.72362699608226
303.67754079037445,511.54762782679194,499.35523572638584
443.77092160430004,472.9450417862648,499.8902828718206
671.4158589446549,390.24003098956575,500.459990653535
452.0015992455476,478.3217861800875,499.26176304711583
645.9325267772697,420.30514650201235,499.43643744521535
540.562269019887,474.250779841954,501.37646490819
617.2615599355947,574.6969466599141,498.6332270624335
549.1979810406931,410.3524889707883,500.26659273819183
624.0069196321737,634.1834988694626,501.5890656454086
551.2700726515594,262.45118666997183,501.40301313598235
445.7683095011729,462.24682609288277,500.6336384462466
571.2415547202902,382.664044143881,501.92158563143875
496.00027073744496,516.8204092872782,501.0162421036856
258.9499227096671,339.7621435774217,499.5284933155261
278.5988514886792,502.4062486422356,500.29735887649304
457.9868010861694,484.8231070735856,500.42442006805504
394.3375562342929,527.0436614200202,499.0863049902491
424.6292568076466,521.4573878946035,501.0933594238635
530.0380200070989,453.296750537612,500.58863665274686
596.703791032786,518.1422233585604,500.49689984973895
528.4850162373377,470.6102525555587,501.0305405420014
451.80475170372665,381.7432665101588,500.29332770786567
483.55025522811354,528.6870763512131,500.1638351474593
589.2228052660103,488.484316376764,501.4900577386361
493.9531516053235,607.3387848803231,499.92574347967764
527.1968229328518,458.2340851999158,500.257449634348
534.3270538907007,617.5142288239492,499.3610957047837
483.3331824175005,597.8712432038817,499.2283833954817
555.1010450451382,391.71089511366915,500.5027163670011
476.8989949716734,515.1153218199453,500.23139692613574
572.5888426362326,569.9126216792674,499.05790139216384
316.82861857541536,408.63801802428833,500.26328685983435
460.5310833295441,329.9027622938646,499.65613642011874
601.5633730088196,597.82934818007,500.4053171205494
437.5473386426776,574.6979934892918,500.3601731021595
702.3067245380051,649.1110971554443,499.2981271850486
588.6509192130778,588.6442849131007,499.4946981157788
464.7062196416332,525.2278557094257,498.0555546745785
423.2495699755903,534.0078559824136,501.18626090976005
427.88753923109414,646.3985535126741,499.85398091748283
376.4014572432596,434.11815890450544,499.59254323489114
357.4824935286864,322.1539395565462,500.1143917753784
401.23834310786134,582.4717648689186,499.41180984474295
526.6049978462141,530.369916834072,499.0110533000245
484.9373792555844,515.1228092946493,499.4909661985831
507.85030572046804,580.4397800789416,500.6408959202914
613.3919974946176,571.5173034680977,498.8778320055397
639.8448733296302,411.1983210193073,499.55502738343995
558.0061687762966,456.1141412030614,500.2265988540094
491.5007583280647,486.88816272372605,501.61111382136613
491.98657276299537,584.3952748276004,498.606231591493
470.36132551721596,586.224593993351,499.8842640671156
559.0578669167636,350.1323930939094,499.0855664339237
531.951000747212,382.7704066903541,499.1024165703029
669.3137772673667,520.1383153922778,501.19623193450155
455.46385166031047,533.3513317148073,500.9809345105334
551.2244975104408,507.1715858658437,499.8000252454748
539.631561587028,539.1652060336025,498.7867988039033
379.68368852787364,389.91050777752855,500.8422745086789
543.1321956278521,484.29168466239054,500.7680527706239
505.7400313592564,444.7370335120059,499.7543836070923
258.34789747068555,469.8757528458643,499.04571940194757
596.4975493129365,559.4791612001571,499.7838136089409
489.71732582481394,557.4715170921218,500.03602806226905
419.9247816783265,471.95306558738434,500.02348878565306
436.5207740213469,641.3231148848836,499.0592256371387
578.168719870824,458.35664467126105,498.34605934271866
405.99093096987997,363.57259082997365,499.57979172735935
570.468892603653,361.83441611762885,499.1060142849402
606.8413377727578,523.0275166275795,498.4756632249741
559.8528640940779,564.5437476606011,498.97757142454924
541.5772724872171,313.7269834817429,501.1773423654077
562.4471482829412,469.7127186046324,500.78293050467033
177.39355631240886,510.4449190897664,498.2180703481969
600.3295310057698,517.4934911039189,500.01603059100097
546.5391463881951,238.74510697089522,499.8887658882029
482.9362418224203,459.0702339763338,500.8008654849326
622.4890174520797,592.7689960715973,500.9275627942875
616.4150334516818,473.1751306367569,499.03772255904124
475.32489843743537,358.93032943011195,501.40098318676036
566.8261717190209,533.259009944587,499.54923895042054
524.8942380716286,478.795984514955,500.23661957729115
365.5309695629311,587.9220128552215,498.9071006296497
502.2914335195697,725.6822508850013,500.5113064083745
420.801538278441,672.4399768185301,500.0102421191904
436.04034183817924,680.1054212927806,500.4261840920267
553.542501084945,455.19515499715266,499.96105046407337
549.570116869807,419.03200988619346,499.8363228554941
499.4811198604771,586.2235059026632,499.37598437745265
507.0153045108076,362.71661672387575,501.6912572087678
635.704586070424,679.6850178885081,499.2967764542456
594.0995544755658,174.27769486561556,500.9365728539544
467.3382455728027,405.3636507563957,500.26201741889713
520.9001813704666,518.9325039478549,497.19811877612733
301.8796366742314,550.3731985141578,502.76195914666147
575.0004309731289,659.2021189224049,500.5736907127924
552.0969140336005,507.0846433454607,501.07136039984096
587.1077358436089,654.3114079881416,502.342937395673
579.6268048315466,419.9397313930323,498.843763930685
348.7856946631199,456.08714364855484,498.65619036110326
282.67460415265305,562.7418071762932,501.6591287763583
507.51367137279664,553.8345983418518,498.72669454799376
472.70039595686717,596.0512001121564,500.39637211224044
672.8058506896638,509.6870895611045,499.73113526684915
478.90688953020276,656.8030167284045,499.77239643549837
423.42203335814617,537.9892048962914,499.9656035842544
506.0086781239094,506.8663325796573,498.4115355355606
528.2925944923187,582.544219960889,499.1335031940086
470.2368287492662,488.8650017839854,499.4596557946214
554.0961807896288,413.9368067225952,498.6533119958622
551.3886554774566,507.28616384219885,498.6482915560626
513.6261344807021,462.6023074623644,499.77674806096167
484.00653741774596,643.92633317663,499.92077441529165
317.7511724080898,468.3541993057465,500.9673597712305
475.51893836372426,524.3530368263981,500.0122236424443
509.6656410139952,500.7071908488368,500.01683536901265
429.55370683008044,345.87571150544113,499.40145430048875
567.3357018461163,463.10305015442754,498.874499102076
547.6039311884488,404.35603579071096,499.30858440229787
436.1439950375792,515.879716272312,499.04312445573885
436.36257131478595,586.0419592938641,499.070430643809
386.8009529672988,409.4161062799508,499.9262334009637
512.8654985556363,422.0473022894438,499.1710929939982
502.24299162464087,528.0749985322813,501.4974706031461
544.1922347410678,566.1032988094004,500.406694292516
574.629273054568,380.5578697006543,498.4252367364406
544.0709714077443,497.7467256596873,500.63682412191974
300.49879787557927,477.89946976598856,497.63160521461253
708.7595767033392,388.2249117109121,500.75745323114506
389.0666801385676,363.0301501662688,499.5439975142595
517.2474988918309,333.7140303352701,500.2162537631926
508.2157869934985,468.45551791591106,498.2493153472507
363.53912710629595,530.5333434934618,499.13000901456064
270.51795874479495,486.9857545944939,499.9374232010048
597.3821557941114,371.91198710845146,500.3901727475238
519.8987448579974,431.50581640163324,501.1604135967607
384.6129817641879,534.2790712070566,499.2912997486933
458.0995501865806,527.9649491546269,500.9180683408617
684.9438077966945,798.0290248808501,501.068830636974
291.87899687536697,415.715089048843,501.06319814429196
611.2527907287181,415.5632869236895,501.0478231006852
494.1425472756395,411.21571689893375,500.7800111642859
503.3561269479834,480.17473399801275,500.31103109853444
558.8341858282821,358.7029541119034,500.3353756008711
815.4169352867332,469.3891404085837,501.0578401861464
531.8005997859602,423.4691949073297,500.6683465593842
493.4283025737795,413.67870424043053,500.6748672683342
487.24359994846424,523.7452579521115,499.97075340617766
594.1886079759494,505.45878176754377,499.7531105954969
521.4193309907981,537.6016970655332,499.6548538974368
365.71122329628935,378.665888677135,501.15360630235267
712.1382911638949,268.6347295067933,500.11598794701166
603.3658943679454,481.0425001831113,501.52815970652654
461.82144510349383,491.7446681417339,498.9267596839766
474.76218773843516,398.48034602942744,501.6778247486171
468.38705397058163,354.93457833672994,500.68781524039434
664.1375439577017,427.8157812612282,499.4032576271567
595.0573734241073,557.9078077776602,499.98229544091737
520.062479513282,371.86578261504474,498.19658355183253
423.9322541274531,594.4543837451107,501.59046517048154
605.505110505021,423.31491948554594,499.10160808075284
703.4057668136105,536.1604874389018,500.6829256509587
328.8779933388377,537.294145320337,497.65199831648425
590.3555294096748,515.0085423383716,499.97006793084796
545.1494244642341,549.2801843397597,500.3136022785035
389.5798992146013,581.2775810319275,499.9960136690751
461.1161210983426,542.5664947218514,499.12534095679877
443.4745021719836,441.8766539718487,500.1139680716586
681.7910182182607,486.049276621581,500.34782523803005
670.7651496807438,615.9438279456973,500.0440151356345
472.5857737041361,394.59756851504716,500.26899319779085
592.9537756788034,354.45890969612105,498.1111411500894
347.0643302364433,569.884359041246,500.3131019466825
408.8258312997094,552.1501920252334,499.3241893980433
236.99711406460267,541.5446792607863,499.8280930813654
464.163926503955,470.81981922830386,500.43511909880533
543.5839795426872,411.0167727579585,498.35316416968504
330.71428571037177,449.8438940148864,502.0700430708435
384.60089760326844,419.6492099144902,500.3985024557152
457.46862627096436,566.1396742333192,499.45972592646206
570.474305741898,493.7965305391349,497.91203004425694
489.9268220246083,636.9274132593517,499.9742343694292
649.040820242905,340.96699965650896,501.3992056495095
463.66215784056607,354.7601648763165,498.81375690683944
286.2327608128222,558.0820054385872,499.8671875162271
501.3463532332346,481.82124255639064,501.5056750962314
629.0550859882122,627.7112514868915,500.2046348864386
414.29974154931404,385.56000559962354,499.00378369395975
619.2956321644052,433.54523082117163,499.57057555577035
529.1370800442926,357.616350869114,499.20236343805567
442.7710410651467,455.4956583791141,500.69529516328316
551.3542079954723,489.573507091653,499.10620940642775
412.41644939231867,564.9009715409989,500.96601862025574
438.34337699606465,531.0891101556836,500.8998663853313
461.47232854407804,535.2527061740055,499.2851461327106
454.04370372312286,496.5150415925911,499.54880302453324
574.0527546662305,474.091508203565,500.12155949588777
395.1838400440036,539.2616192190364,499.53194032730164
505.72323208342124,474.98055413500896,499.44637421890604
357.70914114179834,491.2042336253623,500.403483659286
495.7896249374292,437.2619247580743,499.587851432695
393.9586868129536,478.2778874011239,500.41599615455567
647.8611008646969,500.86413017482465,499.02412890727015
633.8176999779879,519.4866136190337,500.52135212356166
562.1018622611471,242.85426567735607,500.4834184494847
420.24074237288596,573.8651158560691,499.76415924106135
370.0462929959036,295.65256083949487,500.18273803018553
525.5513703169398,474.9808958921318,500.65934928205934
519.6530634175476,370.8376248190058,498.9964236474358
589.6692256056886,467.28605857811135,499.1406068125911
499.2899870173529,500.2565573457432,497.96412685773043
544.72844608814,329.7015603219744,500.5843786643711
470.31114885071344,558.2642484919007,501.60015631643205
572.2187632180204,328.1672221103614,500.1765003978863
567.3964072063836,588.564443052654,500.1237952934251
429.1539060810303,491.8319792588562,500.17225746286374
432.1624271420452,497.73032297988766,499.49554113954724
595.3382949529939,409.94867338796985,499.6680665920115
530.1064952160851,468.3108525624637,499.4954627572447
639.7805679272208,635.269722404056,500.3973108363006
533.376425806544,420.4532608992566,501.30548241934457
557.6240690839159,477.37769850900736,500.1790336279783
518.0132824658335,507.01729093391833,502.34683434598566
490.33561885310525,577.6400691953559,499.10687745162033
566.0179265004155,375.43606195581765,499.89622372088314
519.6768262626788,511.46023301871367,499.4170871817577
481.26313290407904,487.30415724479866,500.09100986745784
470.74509905045807,640.0757574523025,498.61709173206
507.0949000495224,662.2927913381573,501.97439213640075
386.2528999846612,474.8744560141069,501.63571987068406
496.465134286484,554.3688150104664,499.28519597482807
300.52825268059195,542.0211795608292,499.16831620547475
527.6768416209705,692.1650293701287,497.9925830416788
513.823980641284,492.05200474328853,500.8161599132284
670.9000946194157,447.9221007003556,501.047527384043
493.1664448202293,457.02799623202014,497.93979678675396
477.12377361771263,424.3195950270417,500.06734778800995
539.1014742308834,510.86769464477385,500.5551105813494
483.7806728853427,529.6838541280564,500.72320853730133
535.3628397288676,504.07816865789874,499.7515031794191
449.3571506822186,779.4402308181418,499.3411392044328
482.4311065927709,599.6085688286719,500.27495040297055
384.48612734256557,293.75346240351246,499.7760719396444
623.8043411633212,454.4082525245424,500.5424995688389
453.5584863071307,489.93477793347154,499.584863651805
271.32372468864867,640.5439801431406,500.19428924085514
498.2047514970547,610.9248280274386,500.22191812725856
428.4886878656955,377.58994782797856,500.49133333633966
503.46644423160353,613.3372839206309,500.3203860684979
445.21586050284077,439.2374403720934,500.42106289468745
511.9627603671346,523.006809926158,501.1908819994628
462.57733897547865,499.4844989830229,499.2893340753994
549.8932355003385,509.75974966593367,498.70151628248624
467.901848914764,685.1341033931922,499.39106660953547
473.54708221098224,431.72309240342156,499.21231504189177
349.2499217376271,510.6424597684628,498.83923017445574
738.1569848799538,673.4955890439203,499.6613691950469
568.7563199895018,485.83737508140575,502.13891447082335
542.9111948964072,626.9807256524763,499.78564615561294
469.09226145624785,533.5280432096747,500.43768162170096
487.89734004370945,321.9517137471547,499.2120051385667
576.708749414145,474.86667377199444,498.06949819752964
658.4160917179918,618.1814919922917,500.6562857767469
543.0720616762558,441.52894227612944,500.621203765318
675.6246805942797,494.71964299487587,498.00738790999054
520.9677651734963,410.4470378784359,499.9777494733436
558.3779029285331,501.44881090013956,500.2037704924173
541.0694799858619,561.3111724821259,501.637597220709
510.2336827901032,490.4311913104032,498.8543901292931
310.0181874695204,322.26099380244136,498.3217121829799
585.3189852617985,557.7738235006683,497.794834429476
555.86323811933,596.7026953206588,500.82382922683
427.9790512015125,299.3202593493021,500.20296372844314
569.274127797595,579.7252419142796,499.8834544543897
373.1540736718368,665.9883689784161,499.66880352024947
496.3492313137696,375.8578430325855,499.8399878331492
599.4276110428057,435.5587355431121,499.6067593122751
646.2656378739157,500.1883417457558,499.96793157227177
541.6953832142826,626.4070867698345,499.5038167765686
368.3586395114938,489.17765102475374,500.1349010995022
519.4703555760392,504.26590614175217,500.5077371115341
452.9358368145358,529.9789052581569,499.4745320078326
580.6017230377922,479.7933629460728,500.0511477226596
297.81561148168896,514.1554473462076,500.017145102479
697.999232779595,487.65221097111106,501.4098543030905
556.2434786653486,448.40187654501875,498.5420837927847
442.5247313203534,360.21712178039905,500.2228719815119
373.7309665553384,538.2310820342983,500.45405814507853
326.5732329897186,575.6845049040639,498.856811274184
461.60233666257227,403.015992029449,499.6304322272233
446.08230774554244,454.4441464333452,500.8143262484636
541.9276399264269,405.4165444740597,500.0809838625944
553.0934408193718,500.90261592260885,501.0904561491983
478.16703440677384,542.5696993324668,501.1525489482249
509.69633901967524,564.5217584223803,501.0631772248097
674.7619330993159,406.33944383080916,499.3520014838406
551.7727917078471,633.8521842223654,497.99547718641185
390.1858300418097,581.2707961150031,499.7227873995146
659.1591043789002,342.5065652384183,499.58149979471733
656.3389490272878,594.1078637010023,499.5867447465416
437.7339980864766,534.8559908968188,500.1907389334662
460.84440641933185,364.594365212411,501.5092675486351
546.3212816259423,343.08168380147595,500.14849062419063
334.5759992927064,583.1836098380994,499.76103960818824
548.2134589567142,437.1465558363198,500.5302767894983
469.00297640548376,449.48850645079165,499.5089692382138
376.5468575963043,533.2214762365578,500.000047061624
557.9743403171176,501.2213111099151,499.5004815916778
593.2934636950632,523.2042673344782,498.76270697190694
370.03839795151055,608.2096602181452,499.4211802194224
536.2781245608853,273.2521152042584,500.69202668734266
441.89965724495147,572.3269378890877,499.36220991831135
502.7276952446388,381.89761263096176,499.21275366180885
525.9435306972165,462.89278948840945,500.7754306678938
545.1846162293408,528.5411020157494,501.7312070795814
603.9361204349773,449.9900769927094,499.91322364615183
646.2128655276254,584.8788330976298,499.6421735727925
715.5623681082994,528.7465250801313,500.816666532927
459.3968372950175,509.8941713161259,499.48084732714256
458.76339600452815,610.8443134459501,502.189978929689
491.8551898037659,551.8067194283007,500.2203453417502
474.7507395481978,561.9819483367882,500.45895523689177
343.71793425028005,508.9444167493945,498.8956387022248
377.240579805455,482.6857971401977,499.8481256011923
677.6014371412023,482.86264984339977,501.3990390924114
555.3914073205283,540.74105813189,500.5040971732973
408.4210498216807,521.7630500540232,499.98434505595384
590.051023252629,600.6817435792082,499.4597459886572
407.368385821113,647.9528729273645,500.0966562388989
541.6159914678444,435.02183450453003,500.33095645716924
432.2079116961675,560.2643374024294,499.9676828418107
368.0193083367501,571.4870432380371,499.0007518269626
538.6587163343673,440.6869149966772,499.60963389220217
659.5234333490023,428.266967650658,501.4247627634378
770.4988723006225,578.4198879251749,501.3728581932404
511.4732020820526,469.65316871493246,499.4345960692575
589.6075822309847,555.8500902666589,499.88566367734194
284.22144390141295,483.1816000577752,500.0203949577513
288.6126201570296,471.60871283969396,498.72367508290677
664.5397621102311,734.3241347707369,499.9236399188225
348.4462987212937,478.27266273571433,499.6064217807938
480.0657233617295,726.3857126307305,498.133422127118
541.9093530603926,367.0194633946753,497.5359901121729
464.5958194005964,496.48419249880453,500.99044889352416
555.6254643482458,453.37220049405255,500.61176975594907
594.6490947590577,470.6519066184648,499.6019397084646
629.7633131569607,611.279479933055,498.3676722014261
761.7685432957287,437.9102921909166,500.5234679519759
523.2319672215644,625.7015568422539,500.652360695375
460.10457546102674,561.6479561838504,499.2823314886904
496.59157169949685,484.6165604792405,500.1190069944945
379.0616879978372,365.01047931017644,498.9348686301355
541.5834313206051,391.0288602141297,498.5004016722905
644.1575779037742,423.18442004090446,500.8966650211795
443.316225557013,517.5578550036207,499.64678015450045
452.0198484344047,525.8085764275795,498.41542608845896
467.10536151494284,409.59135619973193,500.84520173808784
483.3850090228972,571.9842195549553,500.0264400214819
509.94476222412305,623.311460428283,499.77191865984565
353.81224792548073,477.65053932536415,499.24984798774767
484.77274272775696,427.41501143270386,499.09168098041397
657.5223813357296,473.5611922463999,498.99193035147607
355.5204432717327,630.8534088430322,499.42274913570145
486.242024704896,412.43808925740336,500.06816515031034
457.1997171118387,484.3343586357636,501.4011127064614
586.3265564602359,529.2549760221058,500.4775885767567
464.0623135664898,473.9835611567876,500.67388054882116
568.1008390177828,602.8289726572739,500.97882785113023
557.0409310743375,542.0851907338905,500.6581943466756
656.6396067702876,521.6766891651587,498.38948632208167
472.44031909118286,420.7399491394916,499.21759469541706
499.6795652129916,477.5989976452784,497.6455570204791
239.95742041810632,450.02305675868587,499.1545462147546
546.913590762396,402.4111410863596,499.56125166304787
536.0468151921358,373.6775953090257,500.00796318696797
514.0571293374012,485.09887668300547,501.31438174815474
434.2856644594342,313.847523625122,499.40460997299607
635.9399367419941,518.5913112789382,499.4264614233307
568.4737152235529,442.7241055855583,500.67804908776264
548.583881814562,399.6023711502216,500.12819090787866
562.1244367689674,518.7336287265675,500.26900997579213
644.5284925581681,476.14869795382856,498.9926312927785
475.44431126129814,535.1195975299744,498.77269317436804
692.1084189335635,465.27934114525584,501.3782040705036
578.3241703407705,457.64191294038153,497.66203027990605
493.61430481095533,424.58584582832407,497.6008924943586
401.3640204505045,278.35950733635013,499.24563856301796
556.2903701107132,529.7584735535813,499.3857594764456
510.5840975537772,616.245048281761,499.95108988694585
518.6568252652945,567.2641480197751,499.3087922339848
520.5661460895819,458.09424121488775,500.86112708777796
498.3332569430446,588.9266170947569,499.70327319865396
332.7686844848678,400.64293985147,497.38365730558877
377.7195012739666,407.74092078121816,501.01403412038644
369.1844521797382,401.7883005488346,499.1186620068108
384.2110388386282,441.4171214809386,500.9159551328407
557.7087404451277,520.4811744222222,499.54015442972394
459.6379907562072,621.2012745217506,501.38725203926276
631.1776358674953,392.4891528216746,499.1978803919493
538.6994838207357,551.2448272176506,499.6778831197946
591.8277761196891,498.82201849204085,500.00993561815443
619.5910070328121,436.57604448886815,501.08588287503386
638.9006568891841,467.3609631441376,501.1015175256356
452.4152039801612,635.6767803147837,499.12455870113
414.33670526584103,328.8200405964509,500.6272835198794
578.1401333783908,559.4025489762525,501.23941189448203
577.9589292062922,469.4988379678551,500.53364348618317
428.427258038242,638.6225393375561,500.6852655851164
598.0947103123264,548.9842388220361,500.964496018501
417.00404265994973,410.55007188273487,500.45470592148934
598.3745487830013,374.77615017606024,499.13060865736884
531.9087374379448,493.64021172076565,498.04992640119747
504.9943060775724,465.3706053329874,501.6098227267991
448.79610528535716,501.86178638240665,499.0262995229593
512.0688175114492,440.11615713104453,501.571109719536
363.59114533014906,591.5355656226855,500.8279588946247
526.575096046321,344.1602810677239,499.54099414542907
503.4079887621225,410.53462757444413,499.97481845830134
552.379880761125,315.0947217506291,501.1204391358593
313.7591149437774,604.2724001475348,500.38018355526935
574.936416203953,610.03648356129,500.2349446955921
289.96628038048567,374.3916578307153,500.20608620885463
457.03499538928327,544.5779253112307,500.2702482271462
514.9007271286252,496.7791909634483,500.4301336846047
553.0092492380668,425.1434418854018,499.8310868221331
552.4761246335634,553.201971348624,498.38355720769925
502.84395989176284,292.7053238327846,499.2721094311224
404.2174003967568,550.2348535137012,498.8237044770164
512.4740785621382,453.6565165932673,498.63618844352635
352.08322070972145,434.1383254929124,500.66828356518766
662.2882111253205,474.9205854313316,497.30574209840773
626.6543190520513,408.8935743121791,499.8797399714788
533.392924472176,438.4440284455542,501.23870578615674
415.0385631362575,522.8655769293462,499.8539686384953
530.825663875909,353.93434528875434,500.05710491729417
570.6189833025929,388.9171714964907,499.50447848309267
434.6674612144798,418.12358182775137,501.2377857364404
488.04266861066134,518.3467060124135,499.83344416351474
514.1921083482812,529.8914653579827,500.6598331918356
345.05459201403875,406.19052482964486,499.9516017260182
468.9200312242526,565.0737406335041,500.0334516124209
519.3331457696073,502.85472418936547,501.0091774795037
515.0804089850672,493.1821159062973,497.8675249116015
432.1688738351755,549.0527821858259,499.8114469674105
505.4190282319544,547.9043227477702,500.1541645067326
505.22644166089316,636.8056337589417,499.3804686034564
62.92602030200334,465.0622232878976,499.8610399925397
542.3936138676221,580.2346416616678,497.696679531871
613.1437892477148,301.1440880218182,500.6619464626669
420.8537480141366,537.571472702588,499.1144415823274
724.3068966203904,469.726044565546,499.180096806376
496.872268651522,672.0197883324272,500.8739743370597
405.5669517640527,516.8707632935514,501.6956926474111
544.90677020247,525.3616688803572,501.29848422953046
444.4978691384992,437.10214774690525,500.4622466782001
461.1830624209767,489.22137463969676,500.1749348446021
397.38510086323186,483.0253118536476,498.33701040726623
397.2343136877576,573.9621782124369,499.40761244661667
474.0862321747921,586.6493069411072,498.76722260273
476.6307225113381,496.4286714401477,500.7605579944207
487.6907658132206,433.45671899432153,501.13253929380556
642.210519214958,713.3902029275146,497.87702093425503
549.657262157401,592.7248836941985,499.91466731567965
540.2986252758626,529.6804686153715,502.71830537609975
424.6583739236733,624.3115257394212,500.3635259446233
567.0235476124911,567.944782065277,498.3268359832566
520.07080636395,421.7261502509883,498.5867050719084
465.9147117086933,444.5247269971378,501.2788630576632
413.2656552714616,514.6708025816918,501.2644270817395
378.66175303287184,499.5835417166804,499.64032062190324
535.5956963009921,476.9790166843533,498.5422357126571
395.9842360971418,388.8498229355512,500.14049703898706
815.328432566517,469.1838884323867,500.9127643199773
391.7552857036921,412.4473955921252,500.92394815115676
420.97232439751446,502.25079149995236,499.6640723133646
495.91323363935936,455.196635510423,499.7436097352097
558.7107547360995,646.9297917239707,502.27260090594393
431.93513373588445,457.8887271589381,497.60758696894425
405.494521974494,513.7950695800324,501.7610881461515
610.5200620643379,496.4512892554016,501.10836967358404
437.88171548459377,429.1441709137771,500.097103914581
656.8067753015008,310.6017974673469,498.91276852005734
320.98549066951307,353.259291911123,500.0233942567975
280.28656584917246,390.9876879119993,500.1521774229221
474.5196473185552,618.3634386125866,500.62297184961716
537.6368680063556,296.23060728603434,499.63945185681905
493.69911803519915,474.70407592659654,499.89915793718484
511.28804985028546,473.8408673063337,499.0709187461679
503.83596154416193,414.4781179569895,501.53685858175714
576.3558899092482,513.1329073665636,497.80585933237927
466.58596017911947,449.66177720512303,501.2399743742217
641.4204001798402,546.4891272881545,500.35723673861213
541.860899124969,697.6579138540019,499.53322927316947
543.1572873912427,538.9712396656723,499.83555465408125
367.2737190251434,584.1250558812322,499.69839770397795
476.3940641172332,445.3739751450451,499.7631678837055
599.0595095429801,292.4819596119405,499.6369605299643
480.69195350936536,526.3317994175605,500.5119198575365
399.85941799566183,546.4118076933531,498.8997824916761
505.8158823873428,394.61042688694306,499.58940530508096
498.4128525175756,498.85971072585426,500.18002198975637
546.6361923508109,521.522952336518,499.5326063276215
505.39490991783657,618.1667045389839,500.1017790331208
375.7563142010997,533.689160402278,500.58617137112793
471.42975209371974,495.9335196942976,499.3527474615629
411.60396348661936,431.9345321231335,500.55009103953
613.0220904950025,498.4526058655004,499.47582283692265
528.5703261301962,371.6993242616094,500.00284358642796
575.6606983959373,493.7901868625003,499.8125702703235
477.14569605056755,498.3179872462393,499.3202642827117
460.2742620939751,489.09490535225126,500.86386110770525
401.12384873205986,629.3833790185871,496.6468386008326
524.4521576773656,686.4224330172153,499.4916651567422
387.05592082019297,525.8393347819551,499.9577518433403
432.50351884081374,587.4070612807045,501.2957866030211
683.3138840224458,468.27012874874123,500.8570701450324
458.59686642633557,546.0542960091938,501.4257687865354
501.66850060321065,515.3682510511481,501.0282698655583
521.4823381093256,364.16030449198905,498.096716950682
452.9930664700815,321.6826508357574,501.78284716761084
578.7923820132555,515.2252215417107,499.11738782733494
599.6944752057925,539.5387136007377,499.39760411263035
481.33461450730954,416.18702724575314,498.94032991070856
324.22892971698803,582.8340162104494,498.8579609698978
525.052482898774,593.5308047039736,500.7882845530929
534.225797177085,440.37118004244576,501.577173481063
585.8559983261465,548.9143649945781,497.416386030602
434.5583866387701,774.2671272694089,499.77275579402675
609.567971683201,482.1214705377779,500.46677649810533
442.9906418259672,598.7386125136529,500.06489555490697
487.5186087960801,637.2689056614033,500.2246035867518
350.49993203924674,444.4879736875397,499.6922311351279
447.1855568576567,542.2819083262027,501.17146700830074
499.17070862730816,589.1186726795382,499.89872522248305
345.37276457207474,410.6987504675005,499.98773243323933
430.1405207113871,637.534035474286,501.1908867397615
452.94223610858194,433.0637665302735,498.7848757408849
606.6056988416956,469.52001829375513,498.56488205019275
510.405206303624,593.8588151814328,500.59313409181027
652.2462528787031,465.5567981810473,499.67941300610835
595.1809804361135,509.6160603730878,499.7333516848497
466.82913534420607,577.3904288143535,499.70278267520206
296.07898177417314,406.52500504363906,501.853666230801
346.91682535173936,605.5998354949066,500.8287379286359
559.3901181000767,452.68715530008836,500.58267772153437
509.87968749726434,560.938219277934,500.73823461460273
398.40873759759495,576.7345627946446,500.20714875680346
577.6833496500716,521.7821391862337,501.09451194878534
453.1815498522788,406.0279418378127,500.10569930488833
300.10388728465534,423.5794343573258,497.81298805315873
291.2873431790771,600.664480218655,499.2409730953787
529.9363882722458,308.6789057011258,500.8286820776331
498.7335949955665,475.8323685312031,500.3610029070447
529.0625735708173,610.8429926812926,500.10519636785915
508.58046330529953,463.2518650801893,501.30407337369775
562.8818241299786,435.93862314063256,500.51381853181533
487.59676962720016,314.52761270234265,499.0282703887359
517.9756258473092,463.3235394059449,500.201674695305
518.7458405581455,618.2920621390908,499.57005689198485
479.5597621476183,489.2751996239688,499.4877582773078
599.941579134751,376.19424846588106,499.824717208309
282.0222184731308,534.2609921104737,499.5407848916787
336.02472564728464,590.3391958315292,500.8383877738276
429.1676354319018,443.47166342016027,499.8466093271613
528.9778567827899,577.1926194193073,499.84785762089524
477.4214392231813,538.5557772480456,501.5861692610067
453.87891121687335,422.80751244837046,498.8656047495053
450.2719870737375,536.0413677295803,501.3770241237558
598.9124561429754,601.9943048793264,498.49993486559924
348.58303424408956,659.9589781184077,498.7473160446931
501.3065881270404,501.1013714812296,498.3277196004236
487.7634624072943,517.9823611969888,499.62148938568424
477.0695254400395,533.8652051287263,500.4802203042823
499.1781745304669,584.7295518203049,497.144223454876
475.1105796139633,538.6213206721484,500.5303004551662
304.451566652698,357.5068566540991,499.9163733537567
520.0021260068636,729.119727047458,498.19126317163466
498.10454868007173,317.5791787908443,498.9167799680626
444.45907992498553,616.8547225706967,500.8412216006437
510.06880598774876,664.4625746663012,499.90292148414187
510.8920432066046,580.6637111930308,498.07738992513015
449.70578541512623,511.79389027423656,499.61768462066584
658.5238583705276,532.0170113057289,500.2602649994138
361.58512222189796,705.0740053922534,500.76498455915606
452.1829685715786,387.0817877676089,500.13506424680645
623.8879775132525,690.6724375765863,499.51366181064117
254.96863215170458,532.7160166742854,497.9644737563194
315.7448074566399,449.54383043293063,500.262464098968
641.8379371525668,335.178036546378,498.3883823503652
655.5754281473851,543.8917602451043,500.48290496818504
305.0325981054869,352.7972842992749,500.51190398543525
498.3595880639532,220.99727556354384,499.64853078785075
645.8110822116,574.7570713794835,499.5800034225565
527.4712647262227,519.2135332334828,499.7429784328215
530.0720552596761,513.8392506435075,499.6368729985598
365.2206573047705,312.9236765187924,500.61075878436975
557.7202350810628,580.8846069358627,502.2698980793514
331.6529799284844,544.3582024899013,499.7462100405179
394.55220268484766,302.4160105237811,501.6721343213107
349.97274269124637,535.7071743807124,499.11299073777366
616.6204894167454,590.3583689760148,500.0474230163867
514.5834268594436,616.1078409667249,499.4725229994258
569.3596849654862,717.9459544380647,500.45732543490175
551.7524434078352,445.274643532401,500.83899254271347
471.0505223906939,554.7610331811231,501.02543193298993
574.8929756014546,622.4508467002988,498.44962650916995
447.56627431017654,494.26981764976483,498.9992053625019
482.58817988177196,398.11490774477903,500.74469827775044
356.2116712249849,478.2062751351425,499.09957154205387
434.0700000748325,447.28913097057654,499.3435692766637
405.2562912297264,643.4903362359348,501.5786722210846
530.4455151355043,551.2465657648249,499.76940381016925
536.841185420797,546.9159686996104,501.0302674850776
629.4846809633402,442.92976934973865,501.56203301735866
460.6831687863612,483.2199755651719,499.8567682466055
295.0583909138434,634.274590306673,500.6085162229297
521.0075763314883,564.360294494782,501.72778565835927
559.4403020094978,368.8770400932886,500.3175926297875
362.20097711961023,394.85631767527065,499.3475627918543
527.1525031679771,543.7735596113369,500.48242197395007
594.9412983518097,363.3452225781254,500.059143126661
370.10621637070017,446.3812706032554,499.46753494366897
380.2027884811039,588.2394027923676,499.5915317386061
460.6153041753868,471.953225481852,499.42208368960047
483.18390835752723,370.6255666197614,500.6878110926277
478.3465955440362,466.2913243430247,500.70590666199035
528.098765359487,485.46739383218977,499.26701485461587
626.2133803696124,484.2363615244462,500.48254092627616
406.70189955615024,496.4508426572405,500.7061627226746
545.6904731169731,547.9942957514386,500.61902029296317
615.4592495354071,349.47576362372786,498.4562406831326
476.15911025857076,395.05386588579114,498.9727370278612
791.0769196005826,427.7603892568279,500.04762167948803
335.431539037848,534.5639600980575,499.83603890404225
538.3708797549496,619.0176634039923,500.6341304714706
413.6189641296797,471.53128957380824,500.07044520384227
370.9788947979441,548.1542945939743,501.57321335661055
426.7761083001523,657.9007191088898,499.7582798401144
464.8286171692368,396.85189500407955,499.4615490010518
573.4181351611753,546.7959088860907,499.4147983454712
505.80426735454364,487.12832041047807,498.62431703975113
608.1135004338096,573.1777086538706,498.97027071587826
486.89189700578675,387.9139198433429,500.50791733452746
537.3299593120041,415.11286029081896,498.54550385304054
472.165043846189,341.4293260877746,499.9941423031667
479.7036520803745,433.3920062619706,500.1223500571001
614.7862649044417,375.2938941598568,499.76010230486
482.18191411070177,534.776516237521,501.01766032589427
476.5179219628215,461.09488150963847,499.8153553430758
381.4987995328155,477.746930203201,500.3567284849727
500.87430970764615,573.4133197246848,498.61733297583316
446.48578789144295,343.52535662714115,499.7837894100903
534.2554996299467,535.1780606514766,498.21631439175496
412.26322407196994,606.6982100530598,497.7933931669657
505.7584090868493,401.21666786900096,500.1695421512084
417.80116042055096,488.2334820707861,498.34237713976535
462.40374937779654,623.6323460330735,499.11072499062413
584.3655256650194,386.8464396180695,499.31482542673683
380.4287920500014,591.4449147486342,499.6658280492627
606.6897775312494,424.16522828267387,499.68896487454356
686.901374683861,562.9583954404052,498.81552089610796
289.9637609422581,577.2752950148264,498.7968218470115
438.68833538441345,372.5887174382127,500.5585379711383
672.8390723743453,632.4895538867744,499.56612348436147
631.325545114284,560.6124992372717,499.79860694776085
568.7743723514744,731.7871482924081,500.77264386843405
489.5421071707234,366.8591889418003,500.4477596404977
493.50492437634324,488.11031711135405,500.65087119876216
455.20502875361717,377.4179692570886,500.53441038170774
358.15109808565836,378.98595914682437,500.14875132260613
523.0342512569123,536.1462840180772,499.83979746065165
491.8411058660937,577.0195916552188,499.39878529080517
446.8089979145996,657.4695588258346,499.3143486606244
421.03566837912973,373.45452327302615,501.85233109655223
494.35240579105175,438.7968877862819,498.7388121011584
612.5948811355499,457.29064406769044,498.798635403488
592.5333363040995,448.80681877011045,498.38321200201597
617.6944232231574,492.5927320455104,500.2367159611652
