41.36654620721571,28.324657077297484,-277.01969161329004
-77.3822444666135,-48.78484239446066,126.34865754413308
44.30487043621398,-20.034720239438517,91.78197254966416
68.87349883580904,-14.289891969739163,98.10995490046355
-55.7654696466763,80.61183356589567,-299.6964516826203
-79.562988036147,12.412099812566902,266.57611633004865
91.81498649271127,13.937757641828885,250.30724256217275
-81.05150589552426,32.965292640781776,-283.4598445812363
-83.60177782588138,-22.81012953353143,235.67976909029326
-90.04647604574191,-1.3633949575539837,-188.0787830631537
31.624513574840417,-48.68376042078763,12.970693014372593
-21.274526489063582,17.522244477712675,-5.473110427051853
-49.578318487512796,-35.019916866666925,-103.62194042226791
27.09672826443188,23.754794368460164,-239.02079976001488
8.944096292603954,29.149960300705793,-36.958381241923746
56.906309188145784,-36.57561211042391,8.205772466780271
52.334012729451416,-27.44928824796735,197.81010268928287
38.52552416639967,-90.5123712362854,167.0772011025045
-49.525130456724355,76.21300445330313,77.53965879386145
90.74848263519407,-18.10534786154201,67.5454348597919
-58.40880563187161,22.129982039280673,-270.6609341661802
-85.93339620346691,28.828251588439336,-163.22502635375668
-39.262553609287096,0.9304358739743764,-125.68952561690175
28.283009426631224,-8.996796451258904,186.1708528557541
90.28971020581275,21.00720797324196,-224.2442204183696
-29.625101005228416,-81.43168027661794,-267.14130514659536
-88.75296512094341,1.870727286357931,-98.102277477219
3.278379650166352,48.85519829192427,126.53256352416953
-65.39168171441108,-18.163196322394352,225.69966435187104
-37.28829723476761,14.266553686068326,-128.75187010582775
3.261602383332529,-59.789632389288556,-296.5136924710512
-82.85971074079232,-45.083715225109124,-148.27043395469715
-30.75649557218656,36.22490786736946,-171.72323546032305
-86.60854767705925,-1.0835331814022318,201.81023644584027
18.04724566603395,17.070100768969038,101.8936099073303
2.5750276020071405,31.599246465682917,128.22146645022218
47.598120306559835,-63.88781673371924,-186.76024402818055
4.32719950526208,-57.61360332518162,271.65280045553146
-10.72686822368003,70.55812746491827,-47.364146647243885
-36.73825485549524,-1.1793361031275102,-236.81592111920392
69.6315133571,59.66133173918306,-99.21090187907728
-85.24757057020685,-33.58563713501473,225.14066424430294
-38.01385771637635,4.907827348870314,267.5334188814067
-35.3725998034671,-19.722835982641307,6.754844749062983
-80.43950682331094,-27.171763237214343,14.32223383322948
-36.59174757382222,16.80829774218024,141.04854551279558
-82.28019690022761,54.693481720519266,-61.00974853878689
-55.30515747175826,-80.93006027915865,-33.33738314021733
-89.42030331565593,-44.223785859088956,-191.015382418246
54.358745122168564,12.564433190684499,-200.26215058927747
-23.60081298863119,1.170890496077734,-264.2806880150175
-41.837085909714354,-37.158617560190976,37.91950769968544
81.40391248768088,-11.157844781724668,-187.84439701908454
-59.956710402503035,-27.36175731996983,21.058726264479223
-11.879294610751835,22.674777125247903,138.77122582223282
-30.030617903759406,-23.052000636893677,145.17626802623732
-97.1562642008027,-13.149584517042777,-10.248415955272216
55.05888403667858,-14.653680854807657,223.59516261551312
41.28974666155904,44.86570472143975,22.993544449764492
87.28055480266694,-18.101752623848267,-294.2560927035691
-14.2185962987303,46.76603679310011,257.42114536218173
-13.609057442057848,93.82431093207138,176.73487673776773
12.953503431456316,-29.570003728706336,157.51789164639308
7.479536109802409,13.708745742803794,124.04550558834788
-22.467360017726733,31.916843381502268,-264.54883706772284
15.017466916672895,-32.90628715835186,-171.08472064486688
-61.04428545645986,-26.384408103925278,-284.1153912101246
49.05139825091611,-29.824622657826016,-29.34154728556031
82.00801841178058,28.8021867530655,168.48023656304912
-34.249050292183234,10.773015358577709,-241.261652077291
82.85599232326062,18.247910597895203,40.713022457387815
36.5348094808724,77.6718253781085,32.06753374448426
36.26549573405909,53.124552979138514,198.58218017765546
40.13246707571938,76.18382721516453,112.89356251839244
-39.80285879734717,-63.924459950329926,69.09900993094405
12.652848922157434,-97.22158668209865,45.35765797934359
-94.58940470951318,-16.088330947597324,-128.53283214155158
-92.66543021173806,35.910939146151314,-258.4678616763617
15.189357039585328,-84.73947810806295,-127.68044638281357
46.75458900599176,72.68882619589938,-142.17070504235502
-57.12652482208522,-18.147674197925642,122.18790842424534
-18.818625375213195,-20.369471534520752,-41.12915116769808
-94.31562515359349,-26.186237804654947,82.13197798843166
-36.1312116008806,-60.49424465231059,6.2501929718403515
19.825084092318868,-58.151326897540685,-42.02985408482576
98.17794200177836,3.7287437587595877,258.3533526792147
10.755568756953405,85.3056218366917,139.50117571262368
-58.142234815107166,36.27210449647222,4.246754037899825
62.91157230295108,65.0610922492936,53.97460745932226
2.2781195413652755,-45.437653049560645,80.70491175901854
-94.37154709969701,-11.395473248217687,246.40097420311488
-71.73005342955297,-31.27136697555133,-139.09684566164682
-15.446139225632827,-30.038769778719566,50.4478633077176
-0.7685068418158858,70.35897961966148,208.50316531210478
54.37038068859381,71.33881364708046,91.3315588923273
-68.31033828419993,-48.89606491248496,10.922422303140799
20.523369407983715,-79.1432530502111,254.91599290660827
-9.64200973592726,-59.17948285117531,240.55339193371924
-55.79295438838494,53.70430728825813,-212.3689131723058
49.579598963775176,24.981281320312704,-78.36676835050842
94.19994000280631,7.896610830716715,-72.12789358610775
-69.58025281929213,-19.775971746788198,-9.874869970201082
-15.077090361881428,17.86191479598766,155.6936245251045
-82.71554610588421,23.376740007507962,-1.6464746881935444
98.0109698067737,3.4140823172741324,-239.4018117148892
-33.2028368148815,37.612727458512545,229.6020132035956
49.43561161474754,39.76163192074171,-58.23639780856911
-61.492426852536994,72.17729292773977,178.83217096179183
-52.49817497773832,39.153853401140466,80.66342069319109
39.339964080403874,57.649828983270524,-160.1499740144647
63.305330549523276,-52.51361120183168,-217.32777889947553
-98.44899431826175,13.179377222465607,-117.16398954702557
-93.48509648224545,14.558911573019445,-261.86241347373095
67.19983912081564,-24.69480649854726,-295.5015009737642
27.697471651362406,16.694890141478147,245.54482045273986
7.743814358735968,-54.03023793098893,16.101746068733892
64.78338948592182,74.7736954477146,159.09109489227717
-39.35013043062274,-72.90158434479072,-174.08533840424127
37.85049411333152,-88.91825621662741,144.5067041811555
-82.36202477135981,-55.468052140590565,-203.88557196385617
-56.106279817436366,-7.814301280567451,-172.85399893639044
33.74007519072602,-45.4940205029193,99.7002945376259
-86.11190194160156,43.14308054891572,272.655075866764
71.11595660747201,27.86750776696363,74.99250075395632
-73.78377737482356,-18.42771595083485,-159.7188694858936
-21.442193134668774,-65.07707672356545,299.10188440214904
-11.102878574745212,-62.093241777932924,-192.9650658722877
-98.6317941487263,-16.150079205592547,197.89581365026677
9.109156740675516,-89.27417944111684,-48.53912422105362
-33.93866151675762,-11.33852293877033,179.0861098157907
96.144035234988,4.372314801947844,-241.14944997782203
-99.85709380158174,0.4509663546303841,-252.9958861734457
-29.459026026693792,-14.403274223853996,248.58716113427457
-33.82481247075122,62.81070930570896,159.96011272396214
-27.074460346160343,36.418289037015775,206.5914539964409
-32.92229089914378,-83.70290184434809,-44.46397304025855
52.82922269661889,-8.033442023990906,36.95741388198059
63.64898149574672,66.40732087469576,248.10218421067373
76.83134850169193,-20.058604891179783,102.01745253551194
-71.85554905714883,-37.21844201373831,-88.97282972540512
-0.7084527203221835,-37.61279397120607,161.91936950107782
-5.428457951553489,-29.370080771939797,-142.00249917699443
-67.59094295451354,-24.210322029678466,-133.38281699359214
68.40946831185018,70.50842648113371,-20.186470831324943
61.41704339551992,4.735137852592594,3.8411788570088534
44.488847541411026,-88.99291473632425,250.510726942167
56.97636164720228,-60.93059871290095,-207.9344646614983
28.72375626021175,-82.61871827673467,-70.75817452000564
71.94583492601836,4.751562967967241,196.99326123661552
-64.99356252124855,39.640240253801906,-139.48383420131788
47.82712648358745,31.08908145383694,100.43564355691818
40.5787727268184,78.99741357774258,109.05686309126675
0.5146525108107758,89.31378393071292,-1.2131412058147273
-88.19678091381047,-18.021624033621926,69.50644174820499
3.0561849239050254,18.053271947014828,196.0978225635315
-1.377923849570406,-9.993869852455376,-63.50486661349153
-60.93493574553484,17.679719987058142,95.4993101100551
93.19892954398466,-1.9727357225101874,290.32488707347864
-78.53283508135549,53.43768210629921,-139.22839981906316
-68.99080194870608,-2.5704938586202792,46.159524720900436
-8.612559095403483,-39.513569608927696,-170.49621688274627
10.503763188057725,53.86028039734102,119.13848279189752
8.604338653626131,-65.46766366880837,-71.82188211444192
-5.676539835857897,-62.83278613961165,13.72378894156725
-14.33733811599678,-63.65345701994209,177.64781360203062
-3.4782905250118956,-59.344822545104996,35.91761222880028
62.265224304739554,18.819402810481815,-19.402600053212993
-51.97461271777411,4.604190378214775,136.47929319489756
19.498208532154916,48.10103095360941,-169.21654035925732
-53.95776808406729,-22.412736464010532,73.4874212221096
-24.52382663577111,-88.29421151889156,-24.76554829578388
-33.20765573419371,-67.0193309203301,171.4999301640243
61.7077294095685,38.781586181465684,-144.89996326445024
-87.37537081813834,0.6782811697352404,-78.27835539425591
-55.2434957732048,-60.79800761572949,-216.67784817462788
11.526605759290431,35.80993502735187,-72.53992019355894
7.492536444089581,58.77882697382598,179.43111805423416
-35.15718756400212,64.43401025748207,-81.47482879475487
-39.294236991913124,89.27942675604068,-49.27530876029134
-7.688707089643798,4.801248192471904,-209.2235498871158
-90.90871793398101,-14.894522797147246,-243.09879249046264
-11.275706355629378,-82.54918667835267,-64.91874302365277
92.36728792272196,-17.837887427431095,286.1190932425054
-53.265844982978436,69.52393104148955,-246.19107124953402
5.465285160755506,18.14053197620677,-86.17078101087847
-76.35055382026763,-28.633056331924507,-258.9817855933789
36.27453990988929,75.44195083581654,154.58256270412335
-13.824908485475884,32.396262273153596,-108.30241953029538
28.053861764447753,-35.540525907246106,-240.4624405012418
-9.50973120358498,-89.53996193210021,242.31289816480702
-31.388714180155453,61.22353855096637,239.73968335824935
84.65496876162315,-39.131854127307676,6.723602508282678
-57.12720206870472,-61.09737927892592,119.59391981477185
-10.121059304322099,-62.5961936345709,43.150921487000616
-17.938366872720234,62.26586171181058,-114.84685682405369
6.761632165502696,-28.085394624921275,234.64463556907393
-24.909758187061183,-72.75140138656462,-191.86051507763486
27.826236518671486,13.712248650934354,2.524323260559469
-66.99113196557842,-27.589540830214222,-119.18423895273568
17.231509645095766,-56.90965612551555,130.44608789521683
-66.58006512871614,-6.977208928189541,131.50096453350685
-37.391431270063414,-76.92397467659697,100.40476443646142
-21.372574652784813,-72.15734907196098,142.80886155682646
62.00284588213898,-63.33713588865743,-132.08781671019642
52.07000524754204,78.1065810380355,155.46375254699848
90.31469462585,25.891293878871146,188.34401316682977
-41.78454433113259,64.52572071063918,-279.3520351167579
-13.720341931794966,38.877989671815484,-16.18448543972386
63.67075132168729,24.21605500560608,-40.99242419937339
32.575250835180555,-42.10040317066514,127.9857919110538
-69.1650908863143,11.38745400196674,227.33392731919585
-30.606197737854647,-57.35219592574255,-150.00456448567436
-99.16006813891374,8.446851092415795,206.2706705307181
30.09382796057716,5.822822845435991,150.96513485500856
-67.7500056710151,17.156979115442343,-206.7395723889503
-76.73179367785853,55.04694029973397,-282.055483082612
93.18272998366912,-3.1406557658136647,-106.11390855185547
-99.45026393386878,8.466513913201812,-7.519634290006616
-12.193097091347639,21.55230796544939,285.5012197345771
-49.28176790946757,40.48390700119872,76.77968829013841
-47.156780421904074,-48.34462429026617,55.87319556049506
-40.82211398503388,60.506993809023555,118.53288549572044
-66.61494534346721,-46.94401108465367,-132.97539665098597
-49.15998920016516,17.13635435526267,-61.38203394242818
-97.88334149258031,16.900025491589492,-229.12285860274253
30.703427406397555,-35.741830698901154,-217.27170360342518
35.953595168789285,50.44198221832226,63.77650084784621
-51.51988938728336,62.21335152328187,177.6290124266416
0.41124285530607096,-37.63239377258637,210.8171610946938
-31.455440017789215,-24.94233869832687,31.902948960112187
70.3385927511628,19.31646240466964,-206.92049451647122
98.91841152440799,-9.872946239930235,-28.22515237897736
-82.00251443712791,-37.707397431015536,-123.76320046185097
-49.61633556119891,81.96915745694508,-28.073605139945613
5.788226313880673,-98.8072360849077,199.66187466169046
-61.063477917520444,-11.611753083480341,16.16759179307161
-18.740420534726752,43.08351120974714,66.18642355192534
62.33925103066884,-61.61374876191265,-288.1259869213712
82.78390760555148,-53.60310938949054,-290.4921927933792
94.31245968068622,3.376532212783187,-211.05084283176825
92.87266160556793,-2.7081129172005953,299.74612718056926
96.84100770811459,14.773187090044413,-120.46684175397095
-76.81493956597794,47.01032993906066,-221.06718259219699
89.72121038539407,-24.69334242027124,-193.88224621897206
25.592215754452475,-7.689646324867771,179.7251044954763
92.10031019702507,-35.90908319942478,-196.0087847364325
-25.260902658588137,32.89887235783068,-270.9299345182292
56.66218250343738,-27.680806950824238,-150.33719249047044
67.17085424106331,70.36552205735556,109.20815853816794
16.06846516190803,-83.38664322511593,20.3576578174679
-2.965197991795887,-37.10993480251172,-274.475154956047
84.4713018626372,-21.815516273604725,-184.82315595317516
-5.765195749228735,-95.74483092728259,-248.4482031815125
-65.47554074184683,-43.51224051188493,-195.7345109634674
-40.18389916665666,-22.739645451092585,-70.34771205117664
65.25609610797846,42.132166649550044,-269.122555952492
86.72932821353312,3.639637137982817,-143.6197055849517
-18.075925446528785,38.76440143997152,-181.24603718622083
-92.68957807202484,-5.393869491806316,32.21540921383757
62.98535551427542,60.57259429385515,37.827342052676926
70.2249995744129,-43.39122199533981,-150.7105813948374
-34.30297249742209,-20.07737253220603,132.95739095993656
29.00281250396315,-4.767721716098133,53.259091926080806
12.01607899073367,-1.6027574108539455,-106.02284166754718
33.545619978977,10.09537551254709,-82.88773264833597
-59.577598133653794,-14.84688713329461,-56.01070465545861
83.02074923226724,52.23003073243842,298.29704825814673
-83.37599517746605,-34.238660790207476,20.59091847839487
92.32493676620666,6.595362870395899,-266.84911290577884
88.37640201132722,17.73663513579799,9.323525332503424
-20.191142041325037,-25.545730571643972,-161.03736567366497
-68.17124997542096,-56.68782632038566,269.93706522596517
72.85825254244772,-60.64037594599055,-154.9225123195236
96.15745280672594,27.11952847801726,-231.84511103263256
-81.30862478765526,38.47070111519696,-72.72219381292217
47.04466525018114,-87.3316361085838,-71.13417590200808
-77.34860534991441,-26.26955135054359,-74.38625782032166
-8.215685540418715,-85.34376923941673,-170.82867883383616
-79.01591457100172,-25.001811761693123,-56.22611526355381
77.75642538896479,46.64208135880586,9.2776474648397
89.06074367872854,-41.24690745645137,242.689910599989
-67.34088552782491,52.03030127899209,104.64439271073502
17.501008466256796,-89.79104394246554,273.756039512801
-77.88999580278207,0.7354980806696642,156.010909703238
44.301515947342,77.23111280654243,-58.157129678671836
98.57805127459274,15.585447198065834,-168.64355420265974
-32.38734885157981,-86.37860154900764,-150.83054959325622
37.67054419446252,-92.14535467935865,223.73116688703908
39.582376124375386,89.49345239825372,295.4300878217301
22.61474134881809,69.47441931611863,114.80925786990723
-70.30999174705448,-26.20395982671581,228.197688105208
72.14978568821677,-7.840268196796048,-189.9696846921802
53.1939718260998,-51.25255298156137,164.14472400822405
-46.20118315205735,58.15325567854806,51.689631416860024
40.06277456534279,-31.870570749154854,-8.393151663480602
-96.2793577393584,-22.561171293012187,-217.3616379206987
-48.74763330973355,-3.575551483931982,30.933497326731874
-18.14427278908328,64.4672023201877,-68.75765554897704
5.072981912828212,24.234389700077212,183.02233613950074
-24.478036779036437,47.20267022316746,-133.29254645997779
81.32384606021839,-26.754162766084818,119.2005903488901
-41.4914398390942,22.478646030505615,166.3019422412527
-77.34872011558451,38.82292437097426,-180.7327001305992
70.37988699720043,32.90652399136989,42.231377169538284
47.547844357043246,-70.61525305981311,0.14603702946185404
84.00546002724852,-32.32446647986983,197.16941652376508
-74.6806355142829,27.29689176783888,-232.27620840675195
-53.20248005897308,30.527322638591816,5.249174050446603
-73.55824982501234,-15.81758916719008,-179.84539296992946
10.696515754754966,42.38907363809736,244.37589507502813
-93.55239320017212,7.224003232409526,-265.4217051894466
-5.236939182157041,-98.05007249502442,104.860545298155
-13.332283969291336,-11.806696711178803,211.36828736585568
-7.013337592120283,-15.73098852448093,48.25184406731267
-71.28706965846928,-34.86232824024204,270.3352815814418
-86.77847331890906,-16.02818339869767,129.4703061123253
5.339810929427347,86.27114131237654,259.6732906803591
47.841576839603064,-21.698702296412726,-230.53972383117312
-7.444564490075489,-78.78378970514434,112.26020135852141
30.29822578705188,50.24296518331502,-147.32873231846057
90.16771058894533,-3.638358446709709,23.1299257283752
-26.435624218388966,-23.22221257335822,-215.5844720614126
-40.51894799205107,63.73042760369285,194.51380070902314
55.61330853669588,45.8572446803232,-285.18297356766664
-71.50408911817927,-46.57496286507366,177.08975586108812
-89.60580796864373,-18.82349817164314,-270.1065587535528
85.29995328813322,-34.30685491843616,-75.38347865941142
26.471253033129404,43.88823154076609,-95.61248546554756
89.75168496719017,-29.543323994672434,42.39925902071473
-40.29260357249176,15.24251073568372,-238.47894533167064
-44.99822402512228,-74.30291805430782,-286.40044031210317
11.041467580435803,-63.91891390988875,7.730109077840108
-60.013962100191165,5.977915642281206,-85.83032558320221
-39.57267256475019,-49.76652622720814,-253.1765803478129
59.304224006089015,56.807149702660425,-89.25109691199413
-82.92766722496907,-5.723854867501125,-216.81872263590435
96.81049296914202,-0.7277340591034446,158.1279387774811
-37.78676215032435,78.0904600650313,-111.22475846570062
-7.779895610334964,-46.05240743336387,8.400937801113905
63.528658495771914,-42.8662163224174,-41.62484590250388
69.87082736295291,3.17252254957395,-188.259763126545
87.26833962655105,19.173354101656457,77.01824935123429
-1.6295100942727903,-33.30384648717571,98.91730850749536
37.23702464380503,78.47577620443643,217.00356498275602
-93.07999834095166,8.538877611375936,-20.064972973091777
40.613279575293944,64.31787665594605,113.5823465073186
51.273359625533324,-25.405186965718883,-254.13022607973605
65.78184865034329,-68.04859554880187,-75.13334858628451
-27.013120854410055,78.3399114927988,-243.40010835529358
-85.42523910631776,23.233401829935488,-109.99605408310937
94.05054511427448,14.13160943216472,-292.33044055197536
39.6729926574275,-20.350615287447734,-40.53814131621372
-15.669409812347723,60.636172444244075,184.80889518610311
-11.519332142571637,98.84481276316808,257.1531351609383
94.715632531965,-14.27987207922539,281.2291227278698
-65.38059582149253,-52.6488713237026,50.94651804420616
-26.54105612466189,47.124162455362594,-202.50936459839588
-70.17978515177916,-39.42948594605988,289.300560799532
-39.46835717311947,83.24459790417656,127.7623868726647
39.81223076928133,74.10668548406974,-91.42254675969359
50.981087293990754,-31.78898467849972,-262.0599396331636
22.17852453174789,-19.26206468408955,-21.67895458291418
59.78103989319186,60.65608523952815,159.40921051430135
70.71326061088222,61.93711801654144,-181.77261648836148
-92.32417200329944,-17.166983599776703,-84.2642221378859
-18.170599261523357,30.08055849762793,-164.16047017921335
65.54660293833969,-37.27831678923828,63.41886318719905
82.36558099974988,11.437130456461269,-155.5837913993087
64.74844294399314,-41.57373311710757,275.0427394499343
78.54333080691622,3.7220082754828514,-84.13743829829663
-60.152944750397964,16.12760195140107,-23.235943054424823
39.711388073538686,90.96788955648391,16.424048335339215
68.20172284342874,68.2819693841398,171.38255065612935
5.737950158833005,-77.72093637378576,-156.41347436947655
77.52351852196257,56.05226550080788,-35.280348188651885
4.19954476925235,-25.172400787970435,249.20786405264215
-4.67307929697327,93.09404419338958,274.01960339126185
-29.511566439697546,-58.049581869950096,-254.08076746782496
-85.67497460775166,-33.268481757541664,-208.27089274688478
45.19634951637859,-2.2665134135812357,109.81652014293533
-25.324755552129897,34.36564716513283,253.42781353860846
-53.67112160115837,30.887723648419346,25.244673762318182
-48.875945608324315,74.18232650893835,-236.3751269819518
41.14637440669697,-66.4805710957995,-118.33028909839258
-29.759628549265237,-57.947127521734174,41.99903662078537
75.05651897374135,-10.693945946164279,156.5977092683756
-5.190570521222493,75.6245500282802,152.77618524058914
-15.001897856644986,81.43060306913716,257.9101304171556
82.87849038179506,26.180698652117748,169.16653261853406
34.3721633066544,-38.24704666486718,-198.24342538594018
83.92335707963025,6.8197954948942625,-118.84865998031388
-52.096449986368775,-4.164002895045541,-149.7673021001648
47.125794696779465,-48.717377067669766,147.88416623029792
91.66657090007449,-15.984808229735954,-212.92382164663888
-70.85580070170442,-58.24196284723722,-174.94540385396536
69.91807224349611,50.74832657667046,151.7533319650083
-91.46064918058607,24.94541938138096,-7.752692441253761
-51.20043686199911,35.94899072889843,55.91873637710438
87.47984486700513,-46.44115973539383,-166.29788711328948
8.642540605372684,-65.06808908611636,-200.461633019598
-69.28161749110842,17.360015229701684,52.55973013527251
-28.963125554262437,93.0215677255631,-197.501975814885
-71.75528376949403,-60.32729869289149,-200.40803114497996
62.98129736517966,-38.27052056065072,-295.0848070833007
98.03445155551178,-15.418220545461752,295.29065243848703
-48.77441799934108,-60.66026261997701,-11.410051739810644
98.70387076726747,0.37780108435515286,260.2776380534475
46.86947537030073,-76.02867468456884,293.3070951284718
-61.05642649167753,22.14896180913299,284.68117183229333
43.950735648006955,35.37285265705272,-239.44605522851234
-54.8868458243716,-3.7109924469590956,-257.6154370760878
26.97657515960399,-6.896809311038751,-63.59755472905966
-12.107617178628448,-47.152348637110514,-188.43357521809494
-5.978770184060611,41.54357877312636,134.95563292713447
1.520409604048889,-38.275510465992774,-284.0362354265761
-83.23843789752455,25.88051889624418,185.1584306385901
86.72455295215468,23.329171437717193,-246.2295995309663
14.383298817172863,80.14228194448589,177.1027892921725
-11.63574735077293,34.45631144314954,19.47049934106062
-93.44683656269683,18.21842846613236,-283.4874523673648
-99.52674673175427,-2.9474612884962554,243.21113097828336
-54.7997868537496,81.6165995548288,251.1647514765699
-87.08534541998137,35.45859130446218,8.37507716851482
-64.92958355791107,36.51607497382471,-121.34305517739622
-79.69613293885662,-29.16135322767483,273.72619290548073
62.870642788349244,31.899401165212232,32.97760252894728
-78.49159670006725,8.588478441893784,80.6223644434652
58.77695805652132,-18.414270913870453,-79.11917913556113
-97.99173279963533,-4.257236172830527,-177.43990850537537
-67.33201167130292,-13.772067790512278,-244.730720534432
-64.04831452816691,-23.143959037786615,-114.04865161300917
84.23853639324786,-16.58655886020363,183.13793510307877
-11.72853819355819,89.54720349640446,108.50995044357114
24.835705788423912,28.589648388883123,-88.07038541179044
45.34111184981515,64.03035018264376,125.5215372488567
0.3108699547923477,-71.16946529001758,68.43155928130507
3.9000858904771896,72.89784977116528,-257.0376335523418
-82.73859584388453,47.48514667622873,25.913442498617844
11.382433967748762,-62.441943895720186,154.70111276110788
-76.10088795549854,2.361700874512063,-217.559845302513
-13.639340076170402,11.258784308133226,7.40495599812987
27.88686147990729,83.41143904040919,124.60226742360214
-2.999565084841316,87.10068933073686,-122.5015326472995
-93.85442614529009,33.35700506261992,-110.78639442987293
-24.093563091163684,7.13541237157579,216.20456101905313
-81.45730253294283,-52.75194229983144,-181.9958974034316
12.075434914144445,83.20476383650266,51.887101849336624
-0.33632996142309857,47.88105927293477,68.33715740405198
68.31209088553642,16.76014222298469,29.879171714457485
-20.014962848798824,-35.326029750669115,157.25096271935658
-69.53462185614558,-54.118072445775475,169.6371482473928
-63.67943752209009,-37.07815477711965,-210.34931658124935
44.93523224366967,38.24739067546102,-121.14971986441512
73.46586347694566,-54.5403509713248,88.13179426674974
5.988451981714116,-71.52727087998343,-10.658441403576436
-86.70728908088454,-32.0557435763091,-130.7968541463725
-0.4813228873935538,-19.009435270998488,-50.33518021220191
-88.90101727483462,-25.35247778933325,167.02573401771258
62.547347231568295,41.289413420892124,270.32461992302564
92.52271901210408,17.815769297272393,-62.327026508115544
75.31452098381173,20.301537662930073,-26.844420890056607
19.874563330962648,2.426565511891154,283.2744754165471
-61.53548287129389,12.302894313262003,229.2620444125753
28.99169678712279,84.83984672957044,-229.86425862017563
42.24298829948467,37.51740374291638,-173.53251976406142
-76.25804301066003,-37.437951107721275,-264.11224270334014
-37.557462223518165,67.64848960251815,55.977229255692976
-9.820928143988894,-29.12943283794417,-111.2044946352468
39.40078498019186,-28.926519445251845,-7.852924543725659
44.89910227355685,-17.722928075958116,-266.77061989314194
63.869502819343246,-38.83910642211782,181.26299987757997
-73.48429126560185,-2.3772366828113656,-74.8887623975904
3.6438484075556277,-96.11766613062336,-200.06956855447356
62.92083600110183,-54.91749776365994,225.15468555736
-17.076975391184202,26.18211498482632,-151.35620487105055
-58.870536794339316,-5.986038040340135,-94.49731570323192
63.00613875851888,3.367638570883311,92.35326895374392
36.58987643405229,57.777893554361604,101.48057861987496
-59.62023167965198,52.34092992370794,21.6296441549408
-64.66449842315252,22.9717492750707,-282.0664715087093
43.942062561272664,61.75482682317728,218.18961979359867
-15.387722158594785,78.98799623461801,-101.24788477765642
94.01708927997659,-0.7745675053853077,-85.5103068213038
-47.0070589494173,-73.6637238963954,102.97585101573937
82.0062778129701,31.328538075408154,-260.09877220934976
32.70483659804353,-73.16206290766034,162.73780796869147
41.440449911392996,69.51858786807662,-223.8980905220429
36.930233427126865,11.97660119165346,-11.697913001773008
8.054253951582524,76.96908866358677,-25.27683015704416
51.004413574798214,34.688799346828205,-117.9406944413022
16.563732768778806,33.08016845981998,-52.347645834705794
-30.45429860890976,-74.46796512453523,-25.058828812809473
-23.147803190706597,-85.15092148513024,177.37459827214084
64.13622228872293,67.4784706539559,179.72763714274993
-22.276957619640502,-36.97915636014322,104.16412671401163
43.76855778264242,59.63967336337104,-26.549620086025595
-74.70686713459742,-54.14777115378938,260.6700863821795
21.509610690116567,23.159969532238613,-251.13649518556343
20.849753089616364,9.412491885674601,-267.4735639450229
80.05730502241761,39.13643052929381,-117.8717624575096
-68.84472281031269,34.906565439139854,-292.7129189630366
-1.1181515896587113,-38.476223046088045,-28.981906254441103
10.654867293037418,20.80247274012098,82.37008773318198
77.40052169305775,22.019062997666417,-225.48732364204335
-44.43627504325762,-86.23459287570125,37.67266984305542
75.86218220646171,-40.50232573043234,274.7022007225393
-8.9915757207506,-94.51766451351911,-55.60102203430759
2.0442910073122933,-14.795506283972585,220.59345018304668
-39.37272051412606,-72.92836484457234,226.1278101610833
95.86169868101071,17.326505624106456,66.8947593376732
50.32057026578711,25.735528377002133,183.90269206097108
58.62427402697894,8.595498559303348,298.8019537981839
24.25643079538764,83.2000138448664,-129.27884678889615
0.3458774993373881,62.31953529406913,224.1479794852402
-70.18722752357651,24.799414138936605,-218.35420268641633
-49.84308601837337,-54.703934431701114,185.44544401824763
-74.46790935384809,-27.488837484557045,51.43888894177018
36.501477693475024,-55.935657879947165,-242.4957544036189
24.164483465215913,82.6003147125361,-215.81760737713586
66.34271955208139,16.924825982601615,42.928501721700044
-52.067572041789404,64.54032438416134,191.3087416149572
35.95223763081938,-46.742361380586914,-37.21043111993205
94.8566646323991,17.33993761348132,-158.34418485346265
-45.02977848544978,-25.206944408059723,-165.71247492338463
-49.371026135206854,62.68951728890077,-250.5379600430323
-16.80214117023735,13.183654496268927,189.87334641724118
-3.9099803485959317,76.44249935888254,193.9034289279987
40.47992125848714,20.06096601489585,-134.7281464825321
-75.97240035100236,-4.782983814909317,274.1993987983396
4.736928564466014,92.21460360921516,48.37768264652802
-79.4042397121078,46.968345587599934,-89.45121711884585
26.534048992725758,-68.98910499948542,-67.85717692837585
24.657250302998502,35.01872880960574,140.58082594347704
-45.152119813770966,17.14230946592727,195.0720416190912
27.763880245964412,-79.30157834077106,297.19901299807617
-78.59760015659543,-39.549888447219054,247.07497925905352
-39.32810661793056,-35.678905918618504,-46.69010866277996
46.342701173225166,-33.86433113277534,273.80331943143415
-84.09698580485552,-1.2570614917735703,101.08030186309111
76.50302629442606,-63.5328225015455,153.5279294381483
34.57613854581032,-42.46396889957696,212.50082371898932
-66.37602477370001,19.410249817389484,102.97283459273565
-52.239962667658205,-23.067497048313808,-51.94513318049234
-98.80848413496588,-7.719938600354395,88.99383384645489
-13.200200254415172,5.760491843628221,189.67442867649942
-88.38532223120859,40.24832397458218,112.25737378154605
-18.23829047554113,-14.24724069656188,-73.8282110585249
-41.613471746557764,-59.13209698554285,-7.936071559089819
-89.49986965736663,23.397223345647223,-279.1030212282112
29.658271032648287,-41.24151789306887,276.37327566543274
3.7176761223973953,50.26246408055416,93.0890500641515
0.3607644618087491,72.7252453295436,149.0131667262808
68.69553385980434,0.34854093257574,167.8098905367551
-29.03727042061488,-27.781101545872115,134.9469766430315
-89.2405905962755,18.566302609827193,-84.47399891730925
76.21098750121067,-30.90507088660309,218.49926605370817
-32.4027448186714,-92.9897195676047,-90.50238136339783
73.52875781419542,-60.711899424189745,-246.73294456660574
-75.07598634024953,10.449917364840395,-294.9969198225289
53.281993497437256,-56.78018533131933,195.69009042095377
57.17220898950082,-10.89903509763218,-207.2362043230149
-89.29410361944892,-0.3344909927988242,208.63621764615553
5.489229995176403,-37.873943786329534,212.0941605324609
90.54464667159539,14.192644184364859,-181.0883678734855
70.96085110887427,-35.650787031108486,-208.06009628873406
-69.0382129383271,-60.16918161119093,-208.9760319714828
-10.040075192663146,-6.1450667661810785,110.11398991635343
-54.98414752606819,57.567596813774664,135.41446636241778
-7.806729214674002,4.547009047847852,-15.739633492879278
22.832286459010586,-12.144630235029135,151.66336331153062
90.38392119017465,5.535406022479149,46.18251077333602
-16.66688156508609,-25.472563657156165,-30.133584746694765
65.81297064515496,30.961949627087535,162.94264821709058
56.12597340941592,67.45753643367013,-60.34740796363061
61.777417901726196,59.01864114699576,164.6875289408231
87.43145300337262,-23.13814821432253,-15.252345747963126
-32.73341016559201,-27.997490460650347,-230.528737207193
27.651064345532284,-8.049528385028387,-142.83731245261396
66.47432771617368,20.97736975451335,-61.792627043788094
-32.79462229925301,83.47399566639517,45.60386404418559
47.478649378228724,-87.59891954981703,22.307587089633895
66.84307942766334,72.91119734793595,-246.66743468780948
-63.74004780943623,43.8416076104521,261.385716092299
34.197741081521585,83.3247583377847,181.95892471290225
56.219851745946194,44.114047494591425,170.08909543330364
-5.991971370662252,-71.56092411612572,-57.92109529046681
-30.19797477365056,66.21544483393127,-142.66159117072792
64.53692620348794,42.36652643036203,187.6510235862927
59.855334911965706,-8.640116117648798,-201.67082164350774
99.79084920865688,2.0979452135816428,-123.14011974225608
4.2811612707976066,-97.97572549661734,285.02544530902054
-6.287157000068699,-14.765042045572484,227.08670187787897
-19.10396430460539,80.73811701117306,184.38001949223664
-56.59236062683595,65.44031409879163,3.006966783895648
-90.30915848620862,-3.514723533584362,-223.35142380764523
-38.94748345271368,67.63446047548511,-138.36066022677306
57.85841814378312,-52.74431544783589,-118.40128771919242
-48.24928930702803,-73.72683827434047,97.7276335424964
44.34247579081827,12.100568627482517,65.88237792767171
65.38568103152753,16.773041909121627,-258.21448159966207
71.46383159779803,-14.045301956080774,80.46792617727145
-16.676959205453556,91.45991491279943,-182.63899656486743
-51.804351372830304,23.00927720162591,265.9268612636186
95.99584026460649,12.442201238268098,4.322853353179057
-34.80192035635427,-51.73873142475903,111.5505386861089
77.92332515798093,19.93168190704506,28.774625816265797
-38.00444707666555,-51.66766928764128,56.24369440759585
21.881967834624263,60.71826164742565,-59.41129640018899
32.957260767911635,33.18802428191576,-169.38782494085513
38.35435479203182,-63.06376278002432,-42.67494269795402
-61.333867174544295,-24.563245240897228,269.12581168088155
61.68730793883077,38.59431777944135,-77.18295811427703
24.496286039216653,-1.960874854928148,-144.6304235556894
31.85019545099035,-39.2780792603015,-262.4677251294515
70.80627387690757,-24.61628929798518,-115.87393610085262
75.84493598965567,-10.042990805076982,-144.37802105318121
63.393125298245636,63.95246384505265,-187.81296532642136
3.8116955084832593,-27.50889807108903,-98.09739280472152
-99.42624582043071,-3.3512049396138144,-40.991769222236194
-43.65696251933065,-17.65313753801483,144.5098804895732
2.7105033851005045,76.31957259487424,51.43615419357961
8.759187178442506,-40.08528993151741,-166.36323440696214
55.7102864047869,38.80329804108713,-268.3678863505968
54.23163809264724,-59.64802920476584,181.15222062143903
-95.05281208869376,1.3562426601609043,180.57606242134568
18.70609871463018,15.361419484459162,103.26205275070983
13.182097889095768,-11.820334919271469,-77.86284672375115
83.6468560012813,5.981496086329925,26.620161406739307
-64.13377101790762,61.081882039245265,80.73096007810325
-39.124104377471355,76.61420642238525,258.45695018459463
-12.795841694092802,83.65478950537359,40.66710676226173
-47.08314252650687,5.1124981999864785,-248.29532922816492
57.286863152431145,38.54879483533404,295.242852938256
30.234550796777082,-21.69777932608294,269.4612425422662
94.35184367645937,24.041215585776143,-175.86353638835237
96.52343048126117,-22.009022115844594,-272.3431597453241
-17.848683489666616,37.31702192587789,239.83855497802335
-45.36409311582854,-57.87083350294876,-293.56889442882397
86.88088669018885,34.26306890617098,-171.47497220701135
-21.705226420772593,86.63629532202664,3.097136802297329
68.52947572155743,-32.490328491878586,-87.60114614158539
26.448242952231137,39.14781096950879,188.60495552568787
-15.149876148715702,41.47403299377118,282.64640874580977
-78.57541401635828,-26.6093317282578,-153.64528042159776
-2.920650546735293,80.97464086733645,136.7106394933608
51.05495616073843,75.0253622259921,129.64725789381473
52.69301172974883,68.87426934102864,-107.86014637058337
-59.77843204047477,-77.29912995076306,66.17574756560963
-56.409473284870224,82.00610310861477,-177.11266635064615
40.391753265211406,-61.53468987456756,-238.13778182195998
-3.7115414355772813,-92.3356238119869,-154.84922700939254
-46.264732050929204,71.71402051766212,-289.3645738802495
-43.21146396793727,-89.1639444311321,-121.0662730700107
-5.872169935902449,-86.67341523425725,-7.241093907979335
-98.8813682515187,1.819486777905976,-4.262642413023721
-19.90809467697685,15.486991476552895,270.0408993150326
-53.11275554640669,-23.630755498383806,171.16151140994094
25.59824614840782,96.18738702275469,228.5809148568896
-34.37396459599766,27.136142234211505,-72.62231808303785
68.21803434963786,68.58535553805143,209.0979422967403
69.67147399212817,1.7012177560640087,67.83361528011227
-34.478323314250005,-15.39188749312386,-21.019152770785965
28.33297730348303,-13.165244926198964,279.7330463132369
94.43320520928229,21.588413252866953,88.98602999053668
-24.57355160989092,35.72843658176581,-271.39906347689976
-54.68996131297858,-66.17709890549857,-69.18312498929791
30.158708766921414,-89.06562975271169,-253.1158774591827
34.5755242880589,23.38929064070068,-48.88839732062833
59.85940432162149,-36.43175739367815,187.9019835733288
7.527790230814713,95.76602110964939,-214.94405412559328
73.49420954628468,52.414629215529764,283.824063225145
52.34141936198489,-11.54436358062834,-250.07957935412998
21.81485570738033,16.558111267919028,-293.6369855063935
-25.343120453770496,60.7592971028432,28.48122482857942
94.50328362224289,18.96415096138578,-23.077232628952803
93.87539506903673,3.4401421154647336,43.805138726510016
-30.791010761621294,-45.5012326384886,293.20735949391235
-56.34342477066008,-30.741408363817527,78.93689210715522
-39.54063640228702,-64.97525476529808,199.3910973760238
58.03633158712527,-76.81930271137463,247.40474907240866
64.35617999900659,33.25364909714571,-30.858946978961164
86.08165151588287,16.131171725722773,42.42329745444921
1.0188738038818146,-25.610467588867095,-235.10091648429807
74.36624210210618,3.53701386204966,59.864606529530896
-64.20825728306727,-2.023475894675805,82.6616844106972
71.661851348092,58.555773908197395,101.32855414496373
-93.99799597099101,-13.014892698786266,-252.8824458245221
-5.985477679183404,3.91633460004775,-179.66351666236778
71.04168559043448,-16.769048983785446,85.58863004594777
-91.09001006363383,36.32380963711034,-252.82956477989765
-79.66208510467175,-28.51696235147943,-120.89278360812061
67.85495182635366,51.45120331881351,109.87713705034174
-53.54568338550727,-42.92911873161819,170.0175598155822
-97.01222788811701,20.517600686482226,249.2678989302825
89.12180320851893,15.32472138007332,87.19549266972864
19.79438031865357,1.7569553831117908,80.46277142563119
-89.27778410399938,3.021445323011002,194.8882373374436
-36.54913181079402,78.0061027697276,-267.298432114964
81.62329649436415,29.04376817182222,156.45840491095672
5.020950148278791,-5.50387822123084,-27.418861959930595
8.628859745651795,64.0689090441441,-193.23877645104747
25.084255289735545,-40.89301102727528,-85.65308758857564
57.3391338656698,17.10370595449545,170.27185883727566
28.068050734043084,22.799220453855238,174.21836455915624
97.7244853274692,10.631771068377263,-1.093864973649472
-66.39649843787228,-10.6590321939236,-181.20746203210305
95.87943304681939,20.034019233022406,-83.22999378607005
14.463253856251335,-89.8741844409105,48.03951639270303
64.80628732800919,-19.653952140592008,198.36454441960709
-81.26537632993909,56.83070008937931,-102.00562749550694
-0.09362707498925538,-77.46956832997549,-59.169790229367216
-25.883861868265257,38.46773837801339,269.39776422060254
0.5960358542945077,82.82225213258843,9.627354274046152
-31.161959026237597,26.665618503879593,-212.45734655055708
51.875745247437386,66.48288944437851,54.150066095731184
42.783070070269005,-70.87803305085582,258.7246157224089
67.81421615286958,-11.664189055655067,-27.80385147319524
-76.825904663192,43.69421979897284,62.938761705746394
14.55860553409616,29.293735216333502,103.52135349432501
85.74708370756399,7.4831255378373625,250.58263340972192
80.41550229764343,58.20612393571047,259.869197233585
-25.56873267804547,19.750431007478493,226.81925702192913
43.30085196635445,-20.04940458636976,277.98804737252567
-60.2442695071326,37.38428718464497,-231.36131360546003
73.53121168211545,13.363331531152905,-12.699687056581421
-98.21495990270952,-12.87446030788591,-161.26928510511775
82.81630393094429,-4.522268946453142,-34.46118044669366
29.013296974988776,-63.84322829631816,-181.1083574711846
69.82105107283381,-12.873375265074017,-149.73764009794593
61.41912862011514,-41.95903309591513,-154.33965671887685
53.22692008790031,-1.4363132389724274,185.94165380843185
70.63516779860835,9.288633710174821,-27.36931674527858
-8.328373719018645,22.6173822103563,-7.585946928510667
4.987395360890057,-17.86255207333242,-133.6265897121547
-19.908292771661284,78.50658770102314,262.51559010463257
94.80112413527169,-24.58509566570043,175.54438411728685
92.26265861169354,31.494227023346493,43.86539393445532
39.78013332717556,-31.88406968620844,96.8448438029095
-83.15509360196711,16.520810950895417,-36.95924157330042
95.87993547033156,-18.339551959612592,152.4786891873393
-82.9030830692006,3.1107291713397482,-235.97467720413107
65.76634578698575,-18.420548747512264,-120.25076891385767
-62.94358592459517,40.21583193947885,-229.5792884634301
-48.6134361476285,74.47778967572525,289.37584964971006
-48.72538791411887,68.63642313154173,-248.12700068583183
-52.03701386426196,60.30451307327905,-216.9642011468742
13.173297694914222,12.866064990739691,-84.7255217066984
34.11317633311006,-62.73802758913586,263.77234343349625
-72.27427489892784,68.940538853475,-241.1661313797844
23.679986945706588,54.395768543025454,68.85454406260907
-24.568904127767798,28.637601044908276,-111.11984393907217
44.09610634502788,61.220482848692505,89.0006245702595
-30.969199527227964,-83.5773861576703,-215.56941795626955
-64.58215916333944,-26.721020615227815,-134.4209088242611
-1.2124227116456554,-8.761460389470951,35.001033722718965
80.72899994080458,44.80040304595318,107.6867430637176
-70.71155187633597,-17.482667464412792,255.05874203763608
-75.40604028925841,-25.220058816379602,-18.48221076077634
-0.30361125805711264,21.22682753292081,159.78743372363903
22.45004249561051,1.9504140123895952,-254.2353141562261
-31.994446271930176,8.005454662034605,37.48783923339456
10.724005387753643,-11.200530694293404,-274.3184695825263
6.800472568647997,-43.322484378549575,-247.27848913586607
-15.25841579576246,-43.626722996092596,175.84738990470512
14.977727051600365,-58.97901675167897,239.53370091204496
89.66418408763997,-14.426927279680601,-152.8491834150479
83.39867676520356,14.47947889269064,30.829885688426927
-52.67213221237146,56.67732012253824,276.9997742632477
3.377168998161073,31.300698736563497,86.71144717036492
4.281445720230859,94.31663798034617,6.0501181699111894
2.0897999865469252,23.07575445780724,-186.74306159241254
-99.14625736092108,-7.98309299317254,249.50217160403477
-53.12419285755201,-66.7641665135462,-32.18619154277993
-37.94199501439326,-11.484162595194842,-130.5727946351341
-41.447393051882074,-15.33525857076066,-136.85714290632808
75.23889452377952,-65.75817161515651,296.93055105119515
17.57132930412999,-6.615229527320725,26.100807462914855
-36.49104925887685,24.743360471366604,69.38970099950971
27.933074083193077,75.47595029740266,-231.88842782596694
59.891840452999446,5.979446115533508,112.16952272787175
-16.373428054802595,91.6975417974796,-78.4297326538201
67.1998049267494,34.080511471154544,293.5253304222033
-19.52670456007304,-63.25112236474823,-286.0107386171337
-35.704863691371045,-91.83326681183031,64.5432592792593
-27.36201498163402,90.89567063431122,0.6467112890772064
-15.283207302005518,78.82269909136836,-250.04343772459242
-57.545864210614006,-22.989823353594915,-3.0066176414586865
52.254594241123,52.72528235934699,101.38079022216826
-14.22095798296137,31.52790357879052,25.419584121402572
39.504149098325755,-85.19746495061094,-59.86476500338866
-52.48064128868635,-1.0175449090849513,231.02046625820313
-68.2077453250899,-29.562785916275004,-180.94048381723306
79.94354466442685,-24.23716522858966,-42.896417365023055
65.18007809409256,-59.90778168421439,162.63863634221218
-95.8955292211244,16.26459332747235,-64.29840771570423
-97.01382520977324,-3.075064958773216,283.00356103531897
92.73775095466196,14.581991686857267,-75.39871103799783
-53.91310440125863,50.88874454282805,-297.58433451377016
40.643761307318016,30.497094096931978,104.69511150426325
22.000246584352933,-31.59741830391307,227.59726945548414
-6.129633788413713,8.842430041781641,-73.27803577128778
85.32576726474062,-26.178295320875964,284.2336385893152
71.62877353549749,57.46600640319834,1.1787394682149177
32.795199445968805,86.16430377779398,-221.96890985462863
-66.69574845427155,68.96441473221911,-224.40388064238303
47.651856592938515,57.696584957360066,-45.04994201383503
5.704840344182771,40.02188170332742,224.72320983930553
-55.30121355969626,-68.52280443399917,-203.89115785755197
91.4192604856827,-17.389412748659367,-40.67548628856563
53.98068579462634,-75.89015999310558,-139.16822496704071
-72.97123388580842,-16.39218498867449,-178.12597781468375
-12.582075267423631,-89.39216120499161,110.75577153996127
-97.35756546284593,-18.2713955674242,-0.8608844992111786
-70.73004736797523,44.55788444792652,242.13180124784427
-32.5740977551261,-55.147420658206514,84.4471215009116
-7.000647531649684,19.235245272939153,-141.00904739199538
-11.484363062014836,80.73505692525288,-264.25487941877765
-84.93344322039704,-5.90225111707241,-277.2339354442287
-58.43353419736059,48.06662181650792,-153.57103081890418
16.778452896808858,68.11443830363469,264.0605028962919
-40.66293411821058,58.91712222495371,-62.86265207228965
-68.23939551126077,-28.731306738162345,229.88213004662214
13.085540434989596,-94.10287241376757,237.1089788719315
17.82601202840759,68.48938922823466,109.31558211341373
-82.28083583608097,-8.766751780265837,-45.96094078405213
-5.682113326688065,-83.4589051338882,-257.9766720716934
23.343359614748383,-22.028710764105977,-78.29564780824232
-56.48030243572251,-20.210391297008687,142.2905946718796
-45.26095565952257,-3.7618822843819104,-67.5708937320282
5.056997389965945,-12.011237232865303,82.46026763275434
-17.041639234422455,-59.66755145595091,-56.63853078336154
-84.30325676742912,41.87970040286433,255.8017030041134
45.11833061328983,-13.435009081857816,-6.29773530589659
-3.367711308017518,93.56776819995483,-233.51263552137507
-40.84660189113593,63.17051726832652,-1.9838957708765426
-16.02538768243491,-24.63224018206718,-122.08826690752248
-38.35118752320219,66.30903634900949,-164.775728465237
-44.97872440277524,89.24472588777897,-35.82682030089457
-12.383423923038283,-25.53607493141032,265.75929494993716
-39.6983665413833,62.88865577236152,146.4618591620118
-81.22929697357672,16.53337553552894,-194.41433652232206
-43.03670727775564,14.375907112488557,-179.5538323113247
-35.555984592127075,23.750583947304403,258.12311656949424
60.09475634621617,77.26918294042304,229.98913590747284
-5.555153920664524,-96.5870143769033,-293.06378865265634
-65.79780246738514,-65.63065472220508,119.14446058981505
-71.62846490088279,49.2536409003346,-5.970152538439688
-27.027734892672605,27.75553534117701,233.48316316210637
-55.36470938100167,34.520308975271774,-131.7416094631044
45.853362588100154,9.728472928504344,-135.19655123316318
