-500.56197842755194,-483.71283867774645,-738.1270310947377
-500.1064465424434,-273.4658631847876,-569.9544586959765
-500.2369611259876,-264.4814480419317,-414.67171449859495
-499.39838442605844,-490.0833498359164,-461.12720370652426
-499.0396038568921,-437.3497044840102,-423.60166219397024
-500.63035617463885,-468.6363208706838,-461.14132437561113
-498.6601281092198,-766.4321732112178,-315.4014956045501
-500.8841610788129,-644.751603256517,-570.6709165853498
-498.36027280179104,-522.2860734300904,-400.42660310092646
-499.02219692291,-677.9714393688649,-364.26183559681624
-498.93425848098843,-478.41034223666003,-523.2078838983225
-498.2635751829014,-441.7833218496654,-544.7043128294814
-499.07897510743567,-540.1218575101553,-384.6854323271218
-500.24372303288146,-483.90882562098614,-590.0957045466229
-499.99026695614697,-503.93012117772565,-476.53201161600236
-500.9659614413864,-572.2556371355488,-506.59563727886325
-500.51434766521925,-472.94946352659326,-588.1600036184233
-499.81737563492953,-678.755421757345,-415.3682726122575
-501.475429918133,-584.373753939089,-405.44701864577524
-500.1155150537788,-433.95705920879004,-488.6754912725924
-499.25581542867263,-534.9868985870111,-429.6913087744538
-501.1445526230251,-460.55366381965086,-359.91420347315625
-502.7314712658793,-444.7390486984018,-578.7334632689574
-499.06058781331143,-287.5649194130036,-508.13196173525967
-500.35012928583575,-603.126794554485,-718.2792914935185
-499.9662199948882,-425.9677970100232,-553.0439386868375
-499.40689268072435,-408.32764047413895,-415.1524640769275
-499.8056048779107,-526.5777202154825,-446.3996199088516
-500.1202857329942,-438.781221612511,-434.3418529523112
-499.60077771109974,-509.3984873348787,-392.80434639689895
-502.0827564773706,-494.7023063195067,-516.1251156048182
-501.6166372795875,-365.42312035035354,-487.9813899182249
-499.49154476338055,-533.5500350333479,-487.44104105277063
-500.92580042389613,-539.3074000771445,-736.773483900734
-499.8085037534671,-513.5361393963769,-593.5954908251825
-501.6951938232336,-477.69056495266017,-331.45785732769286
-501.4115883825401,-414.3546187978223,-452.6693594172585
-501.14771646990806,-397.68381056656926,-542.798678116251
-498.7343435142035,-664.3291862673902,-471.39954258665296
-500.69697205448017,-626.3370067378657,-630.303197612074
-498.7799914210117,-459.8177379492725,-394.4164721218829
-501.94962077716815,-539.1249619822224,-631.2926365741754
-498.31782854008185,-540.0041642306954,-464.7121443023341
-500.4222120786959,-587.4711891329616,-541.8592444583635
-499.16448330460906,-418.00632818130026,-622.7007693784384
-500.95402082950625,-462.49953951525185,-342.40844499322566
-500.1571490375875,-484.12979411241156,-633.7772782618092
-500.33753742549317,-446.79707839426203,-466.4988799892244
-500.177970338968,-400.0725222247899,-505.1563853042909
-499.58104478034124,-306.47214913310154,-582.4336064470385
-499.6565728611525,-327.5456425169467,-583.2796981958484
-499.0558552060181,-376.38995114930435,-530.115913394096
-499.68990284800094,-347.9137051500329,-386.0910423366548
-500.7876178648445,-490.16712703006607,-561.4881425421025
-501.2313783733551,-623.3940478054776,-393.69419053793104
-499.55949222069785,-595.6203351925236,-580.079506796717
-500.1565277536442,-519.6519317983859,-503.3314099347808
-501.1346530876956,-403.80984336523863,-556.0083757230667
-498.3407606754054,-563.2499929069585,-612.7102014699353
-498.4073130588091,-562.1377213238359,-661.6854971002613
-500.0026113903616,-585.1803087138602,-453.4301849560145
-500.01213954420297,-462.45200226442273,-573.5493116046774
-500.1088360516064,-679.4663491448626,-552.5873550492183
-498.73298016440503,-537.1881128889717,-580.3407999491911
-501.7165986307889,-307.89153675998676,-436.1691618661083
-499.8653153889944,-639.7447816475312,-441.29062380185815
-500.53907905443333,-522.8468149383284,-466.3579335916069
-501.1888645915484,-624.9915535871685,-105.0973041577654
-500.46931632401873,-576.254960868635,-565.327348464821
-498.2753730313713,-472.76079412380386,-641.5723897627308
-499.7388152811694,-598.7681433389755,-440.5367326848673
-501.02910372613536,-386.06858363559286,-496.97189341061295
-500.25694280893185,-412.6239465473789,-482.95878932025636
-500.5800553177231,-604.1163402174785,-601.2124088134332
-499.8212255417201,-428.6242116098733,-430.8384860893379
-500.63663152246096,-454.44084809010303,-523.7311181137003
-499.72931168115633,-572.1745503486482,-560.0834276588627
-498.40652310491515,-370.27756664233345,-435.0718995515752
-499.6034766625176,-444.3760731326172,-535.6319624258007
-499.037785482328,-530.9914761970684,-523.7635314147146
-501.6165790636916,-657.8338333675875,-644.5813845425816
-499.7047694605432,-498.8597168324576,-523.991033554606
-499.5045334148804,-197.33409083529557,-355.9399300870102
-498.6979694692013,-760.0848319371216,-554.3177165225812
-499.3875259959211,-480.0263549385534,-360.2054670264663
-501.01764929982187,-459.15299827710714,-637.9645224017755
-499.55748731187356,-369.30270925467346,-476.308396584552
-499.71915448945475,-525.6370627811484,-534.6542783972069
-498.4310977628096,-541.7345531666296,-535.8437065831652
-499.66200083659743,-527.8611330565395,-341.07870559098853
-501.03674258530145,-490.30960588488233,-482.64316699156427
-500.15497891647124,-440.1690203760069,-345.35054573436105
-500.2874049102934,-352.11661864334945,-601.283041846811
-500.25202536400366,-520.5983752155851,-401.8478343614328
-500.7117472078544,-512.6100761869609,-515.2552844441673
-499.3595837279153,-617.6399788197826,-557.3197934979546
-497.9423277403843,-550.2860064709234,-384.324806627061
-499.8929221594814,-465.9834067239773,-371.6587720595796
-499.3490597235678,-530.2975272892099,-496.95986217641195
-499.9987406456192,-775.8143271724637,-438.03634077961885
-500.1319827702821,-497.5513078975311,-622.8416492186701
-499.411783844995,-433.7980765391861,-577.6884185304928
-501.4662708692085,-441.3095351387202,-528.2938417149604
-498.82579605543,-440.9833525234533,-434.82306124619475
-496.76957157146825,-460.8353753859976,-512.9475612893808
-499.6473025289588,-505.77438530932295,-487.7941915024204
-499.71289444478396,-555.9552677238195,-546.1303329844783
-501.3749607971584,-575.0821943110568,-553.8179741295462
-500.59269575826613,-350.7566377837261,-334.37515485249946
-500.86511358816335,-441.33376041329075,-429.1323961307482
-498.6700596556605,-585.9628665699304,-620.2375795121178
-499.7926727167881,-472.3529155679914,-471.695088984381
-499.35301430943053,-390.89481505875494,-466.92038289082825
-498.6634720558751,-436.9790239551953,-368.8204792815003
-500.33415617938783,-530.8019950955173,-516.9715369044123
-501.5062334697755,-477.67807281557987,-577.5453027383651
-499.8699903633179,-672.227113591416,-483.6290136130387
-498.84788255583595,-424.92804216064786,-514.0512109754567
-502.32891244159856,-360.880431389446,-568.9136010256509
-498.86880986416156,-332.6870862181952,-590.8288217452981
-500.09085468340584,-500.60581550649886,-506.6505091329964
-501.0229101356478,-512.8850942593759,-391.5703626467141
-501.2126429310531,-498.6131581330864,-807.748098683627
-501.539570675574,-531.1279989793295,-368.17446157010943
-501.9181689975602,-342.49272979956834,-489.34750684853697
-501.1061858901775,-610.8786923051664,-399.248126571518
-500.62364210622553,-619.2986449445935,-418.5701178709231
-498.5591084181553,-520.7644495109259,-579.1343503406383
-500.0649428748126,-422.53697515894675,-373.89783747685397
-500.36493549217676,-413.50969521584386,-617.4836760092841
-501.20759701519137,-317.0853649211118,-326.40741686879517
-502.1226851914982,-535.360595705009,-536.1382205494718
-498.215068845049,-536.7247848845795,-699.4844568415616
-499.1295627106183,-412.8821927794679,-441.07887641057
-501.16850604519703,-562.3286515949347,-567.1268710176257
-499.42762927682776,-666.1340785674738,-526.0115864508003
-499.56639083903656,-500.77211495016445,-437.0593143622832
-501.57413241458744,-581.3802139659508,-390.5279689841292
-500.4945238748479,-349.43381785597563,-471.9761857819099
-499.81635815185354,-393.0594249399816,-511.4510908043475
-498.11922354817614,-444.70290881468486,-390.3342887209682
-499.9573203340463,-369.91822894521897,-470.2571678946633
-499.61492961257113,-514.9641965492681,-633.5994494778379
-499.1678316597145,-535.1467335716682,-523.7119469951185
-500.43109464650706,-711.4507093300679,-592.7616025467879
-498.3889461470946,-483.9191452551012,-514.5590448765957
-501.1075260089112,-467.69087477052557,-501.89977756525434
-499.9915596066533,-513.177509860265,-388.15911997090484
-499.5801009543151,-680.8669725746555,-461.6621686520042
-500.3649513282729,-318.64265437556855,-523.9742181894453
-500.3261733580586,-711.795991966834,-635.6051360623054
-500.8767212641024,-550.6394944822333,-505.44513362510094
-501.1243543993618,-360.5126138003176,-713.449495111157
-498.766552528785,-524.5452675130683,-312.2552517681222
-500.956587223808,-453.1500834824182,-435.9448132493585
-500.1002677976963,-592.3133092793885,-505.0741506120226
-501.6577397310757,-471.49914073360367,-597.1956912557478
-500.13192277601456,-554.664223578876,-575.6218051975023
-501.55831012154795,-576.1073918881373,-575.8920619030692
-499.6188247846663,-672.4864866272957,-524.7702080593402
-498.27489205855176,-584.1553516225224,-498.57637844392
-500.59464820228476,-764.7717197890099,-311.8717465009138
-499.8366742512894,-510.5134002793464,-539.8550924001224
-500.2843922059402,-508.04814926355334,-642.6464537014316
-500.71193889367356,-554.3015841011368,-469.0705868352071
-499.2099737537185,-533.9737651930798,-479.9627005026169
-500.21368100792046,-364.8574743537697,-574.4619218415104
-500.36589091331825,-641.1629206998825,-480.2216542028179
-500.896661079067,-584.0889456770271,-455.66098281021146
-501.99802167406665,-513.8845438289802,-587.3373187553859
-500.3154256094504,-546.6656477276689,-644.6887271841837
-499.92704389313917,-524.0342734822626,-565.4657095774745
-500.7130691866827,-430.33970295404083,-469.0699422291124
-498.2786076006772,-426.95717707684696,-556.3202474387369
-501.50256892485515,-621.0934375709276,-617.9914792123293
-499.4370378525532,-513.5757820780595,-626.3915764250635
-501.20109224996594,-571.8477104774731,-484.50308558530725
-500.3495436811152,-597.5640106012469,-412.6173083360682
-500.2230889648091,-771.3415008563534,-510.9493867047224
-500.4432497648235,-594.2359209184299,-444.30934692111117
-500.7676196287921,-537.0090532210486,-566.9225477938946
-499.55116064583694,-480.84040364132346,-395.437198329434
-498.490019491912,-448.9508801803784,-501.807035807579
-500.3770895586252,-432.7435388216737,-605.7357315897704
-499.81914163069007,-397.0793658419052,-405.6816307876438
-498.90493089072464,-569.6163746193284,-547.9669636610345
-501.24902501648194,-387.57592785322873,-553.4593519424667
-500.62669011914693,-511.17964112333107,-431.03483031521984
-500.12873700170576,-568.7550593489934,-512.8379780827714
-500.2845253234862,-506.76638845246,-502.11858254426306
-500.08809989311794,-531.270287866099,-472.0948756040231
-499.6799928086928,-437.9741974686655,-616.0519884875957
-500.49113491026986,-624.8638141954822,-622.9000624240216
-499.42496012198376,-432.60362732089305,-570.6895182130239
-500.490723817959,-524.4009928477467,-508.718198768172
-500.75491680500346,-397.90744314777265,-481.71029225421375
-499.3364804170772,-353.90456290443353,-656.5159206617881
-498.4064950737464,-364.75121615372495,-585.0572795145465
-500.93335754470803,-432.2102835872565,-497.1217043113122
-500.25455776729035,-527.3852378385462,-587.7836061748898
-500.3796770832914,-612.4600234282326,-456.4052757179537
-500.86729323812386,-422.5331277200971,-609.164544734657
-499.93741495160583,-481.19759395507424,-361.09549595198814
-501.4285958695295,-521.1544917384541,-446.37226057534514
-500.50289647628546,-473.258095426645,-467.43646563533014
-499.0976238460626,-425.24781053333675,-496.23299753753105
-498.50544092077945,-637.831476515998,-475.14494065679753
-501.5549183752677,-293.7506706315323,-487.92516571927814
-500.8828685262342,-450.9031909233744,-563.5293109166735
-499.128731734328,-485.98274231903025,-398.01580764210746
-501.5756726370988,-536.8619732598555,-600.163808702738
-499.6243326756224,-354.8587595137021,-449.57911568988436
-502.00844015685743,-453.18013785665005,-470.01905804732974
-499.32112318432877,-485.12296561438853,-400.32603791425663
-500.7360772713233,-397.8365746579289,-536.8842096987024
-500.4736377598192,-520.5170376107379,-546.8060042961897
-499.97298146225035,-645.5183612289417,-471.46849539092267
-500.610421866979,-470.219564240767,-362.78058655841835
-500.2038390470368,-539.0217162832134,-547.4266258028379
-501.8079651585151,-408.86762029731847,-321.56369559512336
-500.39188364342186,-454.94142366495265,-524.4555332397418
-501.13129315170664,-331.73303138934784,-345.5242963743143
-500.50149748357626,-510.46644215294907,-494.8199784661285
-501.49328815275294,-349.13587982995796,-606.8093917915157
-500.65733018000674,-506.96473676664306,-337.6929930147957
-499.4586443347777,-524.5848531510752,-569.5644521335865
-499.1926019768405,-571.2790776123563,-516.7691609294603
-500.5482114921987,-329.28160187477266,-225.98873914072954
-499.79322873034585,-430.9302326107425,-307.3979019428448
-499.60079362693136,-384.55812540253766,-671.1278763242799
-499.5543728151958,-565.535023145601,-439.3890693217098
-499.0990411709339,-397.8291516784948,-521.3607288134999
-500.30506037392,-596.1300131328975,-559.9591107494638
-501.17822647043084,-405.06456911810056,-472.91111083973243
-499.41762102275476,-331.5483938724959,-554.6543229129632
-498.18102005319287,-521.1177924834811,-491.2033387821125
-498.5620384947568,-450.1208970892071,-472.98423068487216
-500.4426075572777,-561.9108404596091,-352.9337800174022
-498.87020510042487,-389.8586641713126,-637.2091433371972
-498.40586823365015,-665.412952694264,-577.12386535623
-499.2028192415926,-414.99409848578426,-418.9299505391752
-501.1673616551137,-561.9966133275811,-551.4693549284714
-500.2613067762542,-324.3862279034357,-536.3034936751812
-500.1034262646298,-539.4965936308643,-565.6470991237912
-501.28719664989103,-413.6700517676886,-435.64481206194944
-499.46878902598735,-609.6619663864112,-436.16508718973034
-496.5451958142594,-476.022050587832,-575.0248880123654
-500.9945826815905,-473.3666440016356,-601.8562455712321
-499.48601317585275,-504.50333628621127,-504.6309181187163
-500.73600952309147,-505.6793948890704,-574.6384164001277
-500.86991377468144,-767.6511042239626,-510.3801784206545
-498.8464613661396,-571.0211568464006,-485.1260542426111
-501.10019812407654,-743.7498702390069,-698.0196956465331
-499.34195750960527,-312.7064592390601,-564.3557662411372
-498.6078101970915,-550.1322002377127,-502.5784408749985
-499.71504608200183,-465.8697167145937,-254.0754189293035
-499.53864710957816,-481.55596790976625,-492.83598404557426
-500.50118484691984,-729.8962383914352,-412.17580527597363
-499.5524332124657,-544.5749367961021,-569.9057568470591
-500.01897186548086,-521.6600659949659,-553.0171356881146
-498.944750156319,-660.1137507260171,-692.3376517750381
-501.08329064241354,-307.44763075244373,-296.0369250873558
-500.323317502228,-553.93314249493,-478.2810955296589
-500.59440138932155,-414.36326907549864,-277.12927983473355
-499.6354269064196,-427.4656072846187,-616.2117145817933
-499.1037172117832,-442.56726991176595,-465.8432575099594
-500.3413694974403,-549.3979956705308,-454.17826889491937
-500.36749351467415,-393.5596905504186,-275.8537432714336
-498.88795810867117,-606.4115939654856,-554.0121834650732
-500.9679124466629,-460.96606186227103,-636.5731841552011
-499.75745546691724,-337.0238500304994,-681.2026668743363
-498.55526101247955,-444.09980280235266,-466.773404983546
-499.8270570853402,-398.6358255524491,-673.9236797200251
-500.46034697662964,-578.0482257060349,-558.3092667151041
-501.30282230496965,-527.4899215544588,-413.468162380761
-499.85126201643686,-422.97784859495914,-480.7024144377662
-501.72342550500525,-482.3597788601834,-491.18071679470825
-501.5430275432819,-444.2367892380746,-338.4063841140064
-500.2848124145071,-575.9106629696223,-556.7496964435039
-499.9157614989685,-418.80533442199106,-567.933567150559
-500.608495893015,-570.8239487035095,-521.0075675431159
-499.5994470920209,-687.858350580292,-544.813335744436
-499.9925185176321,-347.69666077300894,-365.54635360251405
-500.8222046563016,-527.0163869040875,-557.4520105075964
-499.5668713322016,-524.107790367561,-575.5111577452084
-497.3621696820912,-614.9879694129705,-733.4855307735277
-499.1724336545492,-581.9714535504951,-252.0513425350349
-499.9133734196156,-737.9832248834931,-528.2212368612512
-501.557721059907,-513.3689948733422,-585.9495793628219
-500.6474917339422,-435.3749806935425,-362.1490283908902
-499.2418844076719,-400.97585692274856,-487.7079636883109
-500.53395927427596,-497.4742094491285,-563.9958948461765
-501.1638124107928,-662.2319482158283,-709.1605074395546
-500.40326314686956,-710.8039936621724,-411.38417586448406
-499.86933233477595,-386.83215083670484,-571.7743528123037
-500.4187188340116,-469.6026508768552,-399.9079343327479
-499.7449056665864,-558.2238431126851,-539.4936763193905
-500.6015343136999,-506.03119116175156,-568.8612574155046
-499.3563094560937,-343.7308062871955,-716.4130007201451
-499.0149741249673,-382.7783339632814,-547.0257841044154
-498.4485917115153,-578.5619031982664,-700.1582721634153
-499.5428579018511,-633.4756090899265,-639.7436456072523
-499.4027254715029,-460.7955511313458,-434.5883440460825
-501.58541535605184,-337.09554110304475,-477.8979134591401
-500.81669491149677,-561.3604348334029,-376.08626014869367
-499.18943681764387,-470.6612706967379,-650.2860913165815
-500.3603377110423,-484.4708153886699,-444.9369266856105
-500.34191401221466,-525.6143839969914,-538.5584580250094
-500.70330989801704,-738.1673491869899,-369.6281379229574
-500.11216783123757,-502.84205001866536,-445.51932415782665
-500.45185308323937,-392.3141187396982,-549.5418658361625
-499.07250963141286,-292.08486492147017,-443.19859799205256
-498.4338182410629,-377.39168438904363,-756.6728148771195
-501.6830683853402,-527.322921206531,-469.34320015463123
-501.05566544185956,-471.5616234458241,-460.37995596910224
-499.9110657997332,-583.9373028889237,-570.7154150021105
-501.3824792412393,-478.86026815925334,-372.8589703765357
-500.7073747834049,-355.4509569814301,-373.2467592425327
-499.61280152393067,-559.0432557361944,-584.2192991232996
-499.5671264391756,-550.0544836749709,-455.6942278534001
-498.78430571262635,-430.7066171276896,-451.26070776546356
-499.8199062628684,-343.53076917194704,-470.58788082092013
-499.5139585875846,-474.3134336979773,-432.42846008107756
-499.22257326784853,-667.9913919330127,-288.01206951664005
-499.8638806330744,-435.73711748219387,-516.9579126289551
-499.66103306358013,-401.2099322816267,-559.9361410786812
-500.3095928113281,-226.1080903587229,-370.8811897587635
-499.93285352216634,-480.9077457042654,-500.03138247877536
-499.8876529101816,-516.6319347004454,-599.5078756470873
-500.92686530417643,-485.39081214223614,-351.22802404397663
-499.6285350583029,-391.67340119271233,-521.3853549014649
-500.08259251189304,-468.72571908989806,-583.6780377678075
-500.05631741348486,-396.5663579740509,-473.55573605548074
-499.8076861512385,-531.3791594000962,-530.1986453764391
-499.15474600517854,-615.3578464525879,-669.8183892561285
-497.6043722411687,-428.9274725027916,-375.19401117267205
-498.68475258296843,-289.9177755420504,-630.1222588055869
-497.63475205747585,-550.9818518980828,-452.7849985847551
-497.2557905258383,-475.7022388245489,-554.7615403924328
-500.42119146159826,-578.1447015053607,-657.261678885515
-500.2761628008786,-750.7257152291077,-471.28095740839973
-502.0813776161017,-463.4099014198566,-531.2558904580884
-500.21809646489845,-418.5963110843176,-519.6338454198465
-500.4334292334037,-465.3290206546717,-325.6302577566104
-500.746069205903,-540.7417817278413,-560.200122268959
-502.47034384944516,-537.1988516939082,-408.5763454649231
-500.3342011562922,-435.3868306547965,-550.3557535351339
-499.10506784471926,-541.366915613667,-570.7683821493168
-500.7123688927019,-508.4297931078497,-480.12974004784127
-500.6921050255102,-543.9889644036443,-458.7813980068983
-499.8237787646385,-582.7897915815379,-469.8846082141343
-501.2836806972874,-518.9056035203222,-662.945430050225
-499.12889091528535,-482.88181894957216,-372.1873604701679
-500.22600514012214,-427.585499013976,-590.298577884734
-500.6831605699654,-367.2851878614701,-423.9955367227387
-500.6540530030488,-293.0307883574203,-553.4073026381568
-500.5497035988476,-290.39992559931,-414.90563261987705
-499.2695085748583,-359.51070956541446,-523.0074890486737
-501.3606744980635,-423.03916965686034,-602.3566852227483
-499.64842245836826,-572.008529666559,-333.3091738336947
-498.8186500127693,-555.340393248005,-507.46297042533223
-498.2660002870269,-566.8584123274318,-472.9080925853566
-499.1071132154586,-530.7363821128328,-511.7182493732909
-500.7483831104329,-498.5205972224172,-702.3292217767565
-499.88930954012324,-428.0839198195991,-484.5756997463751
-498.14334311779584,-451.4011820440178,-486.00227345512116
-500.8521558936677,-468.7809556820493,-604.3004549129582
-501.34609041671166,-582.9460212675567,-453.2154437317042
-500.31495797705276,-606.9234218441964,-537.0341143304347
-497.877149482578,-726.0743585923582,-532.0942971174393
-501.9983563835734,-418.00497970893815,-470.9413970644636
-499.7533898184153,-512.2760415762541,-455.06436468921635
-500.3839824002371,-497.4367191195382,-503.47896915607737
-498.78283865467085,-616.9295940455485,-543.7747174069626
-501.93999096551903,-402.4229671245572,-528.9199425409505
-500.55424769065354,-665.3319743247657,-425.13025552224315
-499.562275001469,-250.7340896228486,-516.8440130367579
-497.83204240206254,-716.4549806741246,-485.5572928902322
-501.0664255947785,-607.5413392706264,-542.0529794127513
-498.30155229445455,-332.05279797018153,-413.0385193049172
-499.7657656060207,-594.3299273138816,-361.31958116808465
-498.81760798635554,-366.8750111669228,-611.3426231036905
-498.224787035024,-616.9102752109739,-543.4653361059337
-500.25886662502853,-630.8214182819349,-533.6213062538054
-499.62820694056694,-432.69169000869294,-300.5354603293458
-499.85858812147865,-631.21827920519,-565.0949134852409
-500.61713126831523,-355.3863849602609,-548.875946380364
-500.09573632708805,-573.9606739486461,-613.4503585220159
-500.06740830870825,-572.218282295898,-501.82142439457124
-500.21310755001446,-493.4656052968847,-506.203286670665
-499.3256989290497,-619.261636906491,-522.0894528889717
-500.0551772382357,-518.3675840661105,-562.1783875809588
-500.0882803611663,-431.4054664151387,-346.2822283799407
-501.04291666244404,-415.0422451920449,-378.73515622207225
-499.3809825855964,-429.39244892716397,-426.81405697200995
-500.2532716266735,-440.04593314744363,-623.6386611396598
-498.7585266273801,-551.6332597592578,-498.11370064652476
-499.7663989700721,-549.3192287778465,-760.9131600567493
-501.8222902458747,-689.8321650423809,-486.69505436785835
-500.67132062337356,-590.77055594193,-515.6649032392223
-498.61657516944723,-345.9928082204952,-562.0241847075749
-500.693520734447,-441.43341320242337,-453.14453102358016
-498.56751608998263,-683.6675724185422,-502.64103478854076
-500.5130162905174,-706.3488724425647,-650.6760433337463
-499.6619342662589,-549.7989864364164,-487.2700252810666
-499.19649401689156,-579.3605471756086,-499.41476204548655
-499.24209086256997,-663.9690768211852,-584.1320899961772
-501.1024609376064,-171.50304161139962,-406.99513128012916
-499.1620064478468,-459.43324424449685,-481.3342992060148
-498.78707792008527,-545.352179089278,-469.33791006295286
-499.19409441977797,-425.9543692664736,-537.8006969625912
-499.1825180160563,-575.962242674631,-402.9532755361988
-500.3328350268048,-511.5134643113766,-480.87296756779864
-501.03810347235316,-598.2912385117637,-468.81972724118543
-500.6157439906983,-580.3230568345988,-475.8661134366184
-499.93978202436375,-434.59885068822734,-597.2687783267062
-499.58982305282495,-618.3894874355763,-426.04676024415147
-500.16232355864145,-480.2167861700412,-402.1474801850338
-498.05068801056694,-608.7945072792643,-585.4782597689958
-500.70314062230983,-447.3670396920561,-513.9424464913659
-501.76607538735703,-512.7922901479666,-289.2063312120511
-499.5190270083121,-597.4196316910625,-588.2706511863634
-498.3608809204677,-553.9422866902091,-615.1289053045283
-500.66796179002597,-414.47656521070434,-401.1965509045709
-497.22522486954506,-525.3222448030986,-486.74884963156165
-498.89469451672414,-412.47815188714486,-630.3642845405118
-501.5318966025411,-429.46499791783964,-448.3656389686906
-498.27228622469863,-460.37357099741166,-450.14868784027266
-500.1410642581362,-549.4480869062062,-589.6696544068309
-498.9787444083946,-520.6953667362711,-551.2052274646945
-499.5626341283248,-351.27355849258345,-546.8734552731448
-499.0379549567515,-474.9183975586505,-484.41976517687493
-499.64756159244274,-452.704733454152,-491.3957587937896
-500.33785339939107,-497.96941357770993,-310.1753882452453
-501.2570685934966,-547.8349646443903,-301.30793952625766
-499.13834675711865,-421.25322283766553,-510.9812002484188
-499.80101575678293,-450.6612734132073,-484.2975713348453
-500.63466736015835,-458.3682923729477,-532.089304441766
-498.1824568046205,-562.6004001408974,-437.20879485855346
-499.98483245244984,-546.855316198664,-562.0549314632817
-500.1493133864549,-385.1526568596269,-444.6497412415634
-498.76919061079667,-294.626604909829,-451.5420735455467
-500.8523028217386,-645.6840721997346,-328.69417254918125
-500.77496091807166,-540.3069563153218,-435.43679389044485
-500.3026456885933,-626.0776902391474,-705.5255735986595
-501.08285012928275,-508.2499302241399,-331.4241134124321
-502.3362977413993,-460.6287899752885,-564.9645003940633
-498.64318542150454,-524.5740925844938,-504.71687710064475
-499.7704447513241,-373.4789855736771,-581.1224766753876
-498.42873942251856,-499.53184219981694,-515.7248336711166
-500.4640485832609,-426.6491477975953,-502.52105239222266
-498.33474299029353,-389.0445814362665,-484.3021402683881
-500.1138064000772,-511.72619345952194,-617.451324494554
-500.48445565056585,-597.1950188088648,-548.8960749343305
-498.20257153132764,-489.95087201238505,-643.251311859233
-499.68043802395067,-323.50674602794993,-344.44781448333424
-499.4641191798352,-441.22965335041505,-526.4978624041678
-500.1678953322052,-534.0555898679021,-599.2296950701007
-500.2049227859699,-476.90993870696144,-408.53502581825103
-499.60925520168354,-432.2049573891967,-485.6562397265339
-501.6482264889118,-429.0255329256844,-557.643630144864
-499.87731857072,-593.7789310820663,-586.8712046828771
-499.8375068641787,-346.2653641573406,-512.2825524313347
-499.69012025189414,-313.16421737010796,-395.47620424719514
-499.9006553689194,-617.5456985827418,-609.3254917143001
-500.38436943177965,-539.1051670833634,-443.9942710964914
-499.4309238836817,-663.8871072652137,-290.8924033028087
-500.80435153757577,-636.4140049335954,-546.4473425338583
-499.76474935934993,-550.8676232167453,-553.7707271356184
-500.304802074546,-534.6980288372054,-528.1942272268033
-500.5450929048326,-579.2882940271958,-381.654603070337
-501.49483285450293,-309.8703347275546,-397.1314250572898
-501.7132532881601,-400.01352891617387,-532.3027661708222
-502.0019072507684,-651.8140195342221,-603.4758388425671
-501.012211353105,-489.84428979405595,-475.54486360599486
-499.63738213902093,-580.7465391627541,-554.0768914648713
-500.92831436036005,-184.98275753788158,-555.9483559959543
-500.4448666098171,-304.8315029757163,-512.9747178917289
-497.7315954143214,-488.43406945473635,-541.1015467161072
-501.3577426228026,-367.1752018817119,-346.9329765399361
-499.9949482247519,-445.68288262147803,-540.7580858652385
-501.1368266266703,-450.12440813179444,-460.5166809333423
-500.3057874761183,-530.6391465539837,-487.8619177405145
-501.11416147068786,-486.1231085956543,-622.8088231318798
-500.7944755675067,-436.4964452091668,-534.3369104994539
-501.43949002156245,-492.5010722680552,-660.4306751558194
-500.5031931652639,-485.1274304560954,-380.6001891723581
-500.50548961155835,-610.6840052742466,-568.4034372569549
-499.54565386848515,-541.9553510236374,-508.7827583024468
-502.6913336410465,-378.40939702861675,-528.2856536700339
-498.6404558615124,-632.1170885484091,-453.2169100741304
-501.23398244428677,-399.2468290870902,-630.6989411220823
-501.3092638196808,-659.5288516166725,-523.7681321568997
-499.99532936935105,-443.11083194593385,-427.13643783039174
-500.3433224747906,-530.700321876261,-569.7659382445253
-499.56598170711874,-410.39361469211633,-511.3457366284995
-499.80004964899945,-404.793447304118,-629.3274362020729
-500.04946074104595,-424.2700020027079,-566.9795525229022
-499.60938825126004,-523.7630941940197,-614.617419696871
-500.2715672748965,-515.274973354388,-345.21106056695055
-500.10626812638793,-522.5439773701015,-640.6326387086197
-499.0201064085451,-588.6507943691803,-462.3475627157578
-499.67202479559194,-478.84131948022815,-607.3750008503972
-500.5185462602143,-399.3808779123516,-558.948382400895
-503.05397140340955,-420.9679775749146,-515.8960639174227
-499.0168700562433,-409.39157326159915,-615.4123110994033
-499.880622697735,-596.1845784012087,-536.5694632010443
-500.46505410373635,-571.7172080692776,-612.3371906007993
-499.75569971914575,-391.7218654501504,-510.7199338973312
-498.94564469827316,-457.33037350217757,-508.5206730894643
-499.77319367802926,-478.48169848385453,-412.9923805717561
-498.6818458050821,-367.96215662943143,-552.1352281747141
-500.6577906832369,-551.9602299672795,-464.28145255070683
-499.302704485367,-448.6374879472238,-524.6294785373557
-500.1275280209591,-424.8753450488606,-579.0856834136704
-500.1889904774689,-517.6184750578093,-451.1848717000981
-499.5901023849881,-740.8419433050794,-683.56748143595
-498.97900370129946,-565.2057803856451,-632.2453739625666
-501.4685893863639,-596.9499064750474,-583.7530848059725
-498.2539821050412,-488.93402963079853,-487.92489478627607
-500.37670781761227,-579.587165476592,-555.2668622835946
-499.8665742676994,-403.09535624562056,-239.7080326343231
-499.5230767421812,-406.59712826015584,-449.54041963610763
-500.7339352333988,-567.818662483637,-456.127561531649
-499.26129604037834,-403.8027562008424,-669.4574423595722
-500.5063817658121,-511.5777099702049,-577.6592404142117
-501.0429071407879,-434.34224995703624,-581.6473650698267
-500.6008986950684,-630.6643571637194,-392.5120596932919
-499.0008568131397,-551.4033811905829,-498.80636434262135
-500.16460341433566,-503.7448841664601,-573.0550328016762
-500.4967789271377,-492.7288026923467,-392.4609231018468
-501.310764950567,-451.00942403726714,-633.5126221983542
-499.5374523405051,-399.47508085688,-417.62103225183995
-498.0297777792272,-465.75132692665653,-304.698784656374
-500.2978564934788,-538.3266742872718,-625.1422498729875
-500.99257026569944,-425.83663694490645,-267.5607801683398
-500.2083821052589,-532.3931374764707,-471.95721561814514
-499.0983011185813,-641.6860614196478,-503.02059349283496
-498.3306873473733,-431.2565928782024,-539.4144764704195
-499.61827900403034,-593.3972789696165,-653.5682784281643
-501.0986107601124,-539.7168364433608,-529.3514414099428
-499.1893734510104,-469.12462059325577,-638.0933698691974
-499.704401994019,-478.1124066828244,-431.18779946947654
-500.0673262867872,-401.0941925257278,-686.479939633098
-500.9507461956317,-522.2556114848196,-424.12134528834974
-499.29457171705394,-590.5991797446036,-520.4833444829353
-497.6745556062462,-639.07580686947,-423.95604081845244
-498.8307966485719,-526.9687015367953,-511.3749955301304
-499.9850128549223,-420.81301339889586,-512.4415344724583
-502.38261414315355,-426.0679234914334,-800.8682072632548
-499.6673697166888,-797.4433909156014,-427.3291483651183
-499.5586714793274,-400.5901576188813,-370.1786710089571
-499.54578281635736,-540.1637941215188,-536.2153556405565
-498.82579933885944,-470.97474345090853,-589.0588931414187
-499.21797204545476,-554.8724878213562,-458.1637032908746
-499.74594789144396,-514.1467736738977,-450.1217165793142
-499.49285039769325,-436.35989003285556,-600.8772084583627
-501.65050096675657,-499.43690471656225,-368.8888811727045
-498.4006980518235,-572.6577362737494,-660.3409899053318
-500.95349199779963,-337.44579379694176,-388.26573309192327
-499.7913482227503,-415.45354385679894,-549.6276400073875
-498.8618484135786,-376.57640884397415,-509.98482103517614
-500.82581403170485,-466.61957267596125,-552.9528871919802
-498.67341743671057,-454.74456185639366,-638.4627054149604
-498.8859187368145,-604.3033032659221,-386.454412274932
-499.3699493323222,-446.6496857354187,-554.6259214234764
-498.9137139590887,-447.7287380956043,-419.0651334362881
-499.5249942130591,-509.4915467258515,-674.4739621761871
-501.7777564278649,-283.31235980170277,-618.0764163138542
-501.8517192100761,-520.6704794492932,-589.066392181362
-500.9359535789441,-523.5984930883952,-466.4629868555325
-499.88082346828986,-348.16324101770783,-543.5071347829463
-499.16512996532094,-473.0068370542403,-612.0677511333165
-501.0347828498336,-595.5683901975556,-450.8493110698366
-500.9225546726499,-593.4914166988136,-470.89254257429116
-499.561229702934,-443.3438092388268,-535.942543761631
-499.42654162578094,-341.63481124058126,-722.198428669467
-499.57193165818074,-537.0704261286749,-575.9718373916165
-499.65459844561104,-484.0533311983934,-590.4683981826435
-500.9345247405506,-533.2282145578145,-337.78051619692263
-498.44413265093965,-453.26264133966714,-566.4857323276847
-498.87076087478573,-418.2847077545951,-541.1883569346488
-500.52157326187734,-468.1725184262451,-598.6228995525958
-498.05458285006836,-409.08878961585464,-337.235364083596
-498.41092137937613,-472.0705571894685,-524.1256052735555
-498.7114595651312,-413.5176248378543,-469.4369344614844
-499.38090627897793,-554.67992762876,-457.101870546801
-499.53911191056534,-328.81265317455643,-578.1253368498999
-501.22559304754105,-640.3571633368367,-477.4553569102281
-499.8855548294743,-441.9995354042744,-407.32775827118013
-499.7189176812851,-450.20300987021267,-479.0848682997554
-501.82971771019953,-404.77708187213744,-411.6289205531696
-498.9822917694399,-472.84129487660874,-542.6348511357843
-497.45633284795093,-564.9999671238704,-444.6839127819059
-500.4826290464943,-345.6234177709112,-445.8725538145636
-499.37847378808453,-632.2118187716051,-533.5326568668384
-501.2713450186801,-382.84242853233775,-418.5641417438034
-500.16161915324136,-552.4950315302849,-672.4102956498435
-497.92018726653384,-683.746784700613,-395.6148773371806
-500.40376150482376,-417.3258900980436,-443.5298286069504
-499.57942106971177,-576.5610187197116,-479.8644855662505
-499.91056046785036,-553.2049836829921,-444.9960334692484
-499.57438993658747,-561.9111102207788,-409.898490632173
-498.8628917484996,-572.6913264289319,-718.3338145184134
-499.8990358737222,-581.5656393591894,-628.8589133491114
-499.0083643620706,-504.56499633593677,-634.4597817279491
-499.98054038975323,-722.829731631149,-501.1396410655854
-499.0845229950101,-510.4775156281412,-328.1224545890417
-499.600092794732,-591.4537020175106,-442.29494887907254
-498.7269968867795,-467.1930981874729,-619.8634992028624
-500.28328550851955,-661.1119740740625,-389.9664391298454
-499.5027696342732,-662.178364753486,-627.9519166506971
-498.7391136175195,-650.1350792627385,-561.6151673349208
-500.59655168036556,-550.0353803935722,-635.0196855502646
-500.53664054081304,-385.28277292669657,-349.389031760854
-500.119895822266,-564.1400940637839,-571.2194951164902
-500.1681228589531,-578.1588591190489,-559.1896685470102
-500.55029555717704,-567.9323545859271,-542.0572262557848
-500.24840144054644,-505.7394230398395,-447.72118004079164
-499.6464187652642,-422.4672341300419,-737.0059423163357
-500.12329841316915,-472.8558352271595,-411.0902910824793
-500.58484134158016,-489.69502481378856,-570.088141090743
-501.2171390416984,-426.9586365260151,-396.1914533368897
-499.2682477154445,-569.1277447029609,-356.88816180390415
-500.0873552712473,-381.90467856710666,-511.92660962874845
-500.0870706785908,-507.3622093476147,-618.6840310724659
-499.8770871668912,-492.7014381481025,-509.3819505151331
-499.5503332120071,-461.3031380245558,-522.1618439313906
-498.48030472037703,-418.54330857277745,-528.5376749994288
-501.00361061558607,-528.7243268507422,-357.78911389885434
-499.78550034027313,-531.9903478386519,-628.8810575173073
-500.2415398391787,-630.3494054174934,-596.3126217077286
-501.14070470576667,-494.1884312773685,-517.8856908534967
-498.7453139721516,-449.7931986777588,-541.2168686288506
-501.17122960240494,-514.98825125406,-385.24404377973815
-501.2071816616054,-511.57520178399614,-660.2696631801374
-500.1730595153075,-488.67246181431204,-619.2657218176513
-500.7096511033024,-742.4161773493283,-510.06950448514
-499.94196814826006,-415.12566473579307,-298.61891070551167
-500.9800798320082,-538.1116199318244,-468.01896101736077
-499.9618540310095,-351.8459626242709,-489.70341302975214
-501.3868721176906,-542.5397820136511,-542.0023898019064
-500.5293407682149,-641.1495869561643,-460.5362760115754
-500.87027761765285,-527.6666658022738,-583.9310176162709
-502.04554981910337,-488.4158740926427,-570.6810741454289
-500.5505417953349,-576.0615907710219,-594.9495800574783
-500.1460505704717,-316.8696381710116,-441.62983951067565
-499.3273846967463,-678.7254565157008,-652.2997638245913
-500.1113337309181,-510.7441456525445,-503.6117725293629
-501.4518289546602,-450.4759459759467,-543.8511603880714
-500.85303343481235,-476.10777606845335,-597.1886310434741
-501.5299348869657,-531.914234762385,-572.4485722030066
-499.0654811930347,-263.0314937647903,-505.63871816036846
-501.4080106796894,-371.616804825974,-463.07559363511984
-501.0134234395697,-513.8027144955737,-559.8185308759075
-500.2789511750527,-525.0627490196458,-378.63069448645683
-498.73879679366587,-567.6453385976322,-596.7833048264579
-501.38986610567173,-597.3607200926995,-686.1181562906836
-499.5578831352442,-574.0575774028556,-523.350236533387
-500.3383396447788,-389.957082154323,-349.0301771040344
-500.5970102178281,-372.9769765838104,-574.2298687062234
-499.8651000046063,-322.3342704717564,-442.1610208813173
-500.265045237197,-711.5325434984613,-442.0167850218826
-501.4510037978138,-383.88539135152365,-597.556550191847
-499.4661940556943,-499.1707279714547,-570.0332904297211
-500.72138130312794,-360.3599785361438,-422.8643341980782
-500.2775591534118,-478.75266113883464,-533.0300414318625
-498.6548736463957,-363.1384870843285,-328.87474777763555
-500.2230513037903,-665.2199427058154,-401.6533810341894
-498.96159697173835,-516.0014163625609,-394.4887964818991
-500.4381790127955,-530.1621736768337,-498.9722060112837
-501.3956229943343,-376.3630356172985,-569.7657799855912
-499.418947798787,-451.46709468362104,-520.4695830508008
-500.92521536883123,-458.6102137907347,-547.4809047399349
-500.7819794136633,-490.0618281214823,-479.23821341439964
-500.4921468499037,-207.99734421610162,-377.27203825172484
-500.00506923326293,-594.2339655766774,-547.6719946081236
-500.81706644600047,-409.5673816166698,-305.7322581260244
-499.46334296864256,-407.3109063549513,-545.974440861262
-499.0673200061118,-463.47387412444976,-276.7325047558818
-499.71130902377456,-373.9689478530324,-362.3568095849992
-501.2320762508861,-357.44599493683154,-309.6054911071556
-500.0712089266691,-451.69389606754834,-456.15133712983715
-500.73062554788885,-257.2811271298637,-529.2221835244833
-500.24515964188015,-478.11158375690223,-507.46964916329694
-500.6765372026562,-424.44601082945974,-539.6720626578407
-499.83801871730304,-584.1258280353254,-437.20823553429614
-501.98528528366893,-447.84574875832277,-521.349936943535
-499.40490189378033,-261.14114702491406,-523.6926319783943
-499.77761918606944,-586.9485597901823,-417.13593047048874
-500.90104931583824,-235.0486670314844,-621.2624868124137
-499.82670437995375,-734.3092782896629,-479.85514259994494
-501.15459742059886,-461.7654078868262,-508.37658293710126
-499.0385921784121,-652.5453545778286,-376.7684282010151
-499.9396757992631,-701.1945115848962,-524.3023855607029
-501.1918561284422,-454.3901302816289,-607.6615791821699
-499.6816036781976,-622.362650581576,-723.5909303773192
-499.60287669296054,-432.3192036543949,-575.2228864138375
-499.7416587033909,-554.0293286840007,-616.0626031433201
-499.833796202167,-364.9028679641709,-532.6692205970746
-501.28792041514106,-413.1833246462395,-519.1123121137647
-500.33754289444937,-596.94359570111,-499.63503251497303
-499.6761606188747,-564.8855277274057,-480.8507505630019
-500.828922131699,-455.67324354983737,-650.9345530550825
-500.8086470744877,-529.6506539917732,-604.9770264924924
-501.0036114767306,-669.2032995780463,-530.2701561196191
-501.2950530010333,-502.5812106263232,-467.57176136182017
-499.000305780657,-469.8612263098297,-554.6288243892398
-500.14642883062356,-383.63521333554127,-328.64979019173825
-499.439000404661,-626.7717382475273,-647.400814441452
-501.4505428656406,-393.50354331239635,-472.21948714885406
-499.77348282231674,-298.7435793539123,-430.42217822653436
-501.12579581094815,-358.3075313978762,-389.9109347226865
-498.9742959542491,-297.493196925495,-580.9316479259028
-502.18692030833864,-647.6663572418663,-401.9831965062491
-500.7714330725291,-576.9838246695396,-613.8385869299793
-499.7507773630926,-635.8192531717524,-425.75768560967674
-500.15142836529344,-503.87549322861315,-513.543864725027
-500.84684937219015,-568.2902858904786,-500.61473226814024
-499.68043441770874,-646.4467295314321,-543.4114190467143
-498.3573093966798,-487.63560910189375,-515.0956100152326
-501.1359664310143,-414.3220042629889,-434.88311118308775
-499.2704110151736,-491.74935742197766,-616.0077856914527
-501.61351707207746,-370.2058980614222,-419.1868206917871
-499.5272650539734,-533.8753794358115,-597.6744453484921
-499.86170184282116,-318.63986101295274,-582.1028248726939
-499.46970281222093,-534.0168505940259,-482.02548697240525
-499.50314157320025,-448.79170767519076,-681.3911882021281
-499.9192273618755,-474.62659758697686,-547.02111503289
-500.4337994510996,-399.2052094561543,-735.9412920575389
-499.1499389152804,-560.3249083022567,-697.7268474903029
-500.286215752983,-611.1721199898747,-641.3119473750764
-500.52759185415124,-460.75131515880514,-529.5905475907538
-499.4293970990614,-416.63694016994737,-481.1592076064826
-501.4969524924538,-423.2798693785835,-680.6906268996963
-500.35653739054163,-434.4978078017506,-549.3779857789011
-500.31761653838385,-495.6369395880786,-618.6092445114621
-501.1987271311777,-668.7814856008202,-554.0892883524513
-500.12812499521755,-515.7323190699267,-538.3139524764155
-500.0686002311233,-484.3662535158828,-443.46027355837646
-500.89754230814725,-436.1388009946761,-384.46830243276946
-501.46034081920106,-455.0455997261613,-435.6083834909433
-501.17280631814714,-743.7957426909288,-453.47318552250357
-499.1707873906916,-486.8613128183177,-541.3570762500464
-500.09930064989004,-525.9714757909072,-370.5163046489356
-500.1004663536456,-480.5071334772655,-561.8099047512466
-499.66647266771156,-573.9649068697088,-565.8728130723147
-499.7229436644406,-518.7254195485161,-405.2728289753478
-501.0234188679389,-377.95140272080664,-486.7010777356231
-500.2803259173097,-635.185630446085,-415.7698716305461
-498.7894008049225,-457.2629830037299,-687.233490647611
-500.87547076232363,-342.3989172409813,-644.3253635316462
-497.35709477099,-325.96039295772334,-479.8563913783141
-499.0160279201035,-501.619827491274,-327.1678120492159
-499.32716203405585,-368.59741572631884,-449.67707208678047
-499.6848482962872,-382.53825727167913,-314.641723105398
-499.86896980049727,-445.54183168698336,-503.46092524729636
-501.5722911225612,-565.6200019211386,-534.9547421290796
-500.3823252285629,-415.64338762785485,-404.55117806633683
-499.8449044997039,-518.774597754045,-623.5686067805111
-500.3937301058406,-552.2000072171052,-543.0884341220391
-499.1671932086919,-584.1083698007119,-686.4433338458078
-500.1057225553622,-374.9359614279233,-384.94766715768174
-499.4590682197251,-381.62176241639804,-443.19194024607174
-496.5840717419062,-606.9815514207364,-302.40810005314154
-499.2309989804476,-389.39789066894764,-469.4536574006434
-501.0246243799099,-377.3360852468114,-355.98530326408275
-500.0236717873485,-727.0037730259219,-409.73578533713743
-500.98057654322696,-766.9167370191004,-496.12038051096664
-499.20714248740467,-611.1311891374747,-317.5577829457616
-500.814075117432,-498.1266611139748,-662.982713416718
-500.6622787416012,-343.6490939619149,-508.8260544512095
-498.7422700955849,-612.4767603525249,-485.06141114815176
-499.93428259098374,-393.2690917286,-612.9573980839508
-498.1022075545725,-429.0284126944233,-319.205614084842
-501.6189922105285,-506.1448636417693,-473.20001750439485
-500.1671428972171,-379.12921199862063,-347.68048269899225
-500.9452009339934,-405.79029686189585,-500.5310067660788
-500.63696157819396,-577.1214669858321,-592.385531922716
-499.8951686816368,-351.244486865825,-670.1458463233691
-500.3883998865288,-745.4026087067929,-507.8035250160289
-499.25750849016265,-416.52062298029006,-456.6674739670267
-500.09645862137444,-606.2157915573866,-487.7723711498211
-499.38841275103147,-593.1332469356888,-306.06724494755156
-501.10724277385003,-513.7469374523585,-456.60051957258725
-498.7493136895614,-684.850797878634,-538.7019488552396
-500.52831094186155,-474.1951024510581,-467.8227683278885
-499.30054283708154,-504.4375759501624,-520.8607755749347
-501.53591583596796,-461.1754350895234,-506.93737255642435
-500.0380108731124,-539.5612852514944,-421.3461063275619
-499.629260305869,-535.6976761286865,-619.9969254549836
-500.61886386868724,-358.64613834894897,-472.5922124292699
-500.3594908195457,-548.2517150916375,-565.388504249647
-498.7243751959374,-471.37109844180213,-488.8309518827598
-499.3750867001036,-417.56806550449335,-507.1242595854109
-499.0417077594393,-609.8047493705456,-558.3709867937016
-499.3636821752629,-692.7485410956217,-434.5990933953677
-500.7770741342917,-423.04461631240633,-464.82954876191025
-499.21212137135706,-412.39916208505696,-354.83465552048995
-498.47871198281973,-224.77924558106338,-494.19948711621345
-499.9933540373768,-507.1664907117159,-406.29690140070977
-499.32835182982603,-493.21476216135045,-461.73181859044513
-499.757263243073,-561.60893452903,-602.9605461786701
-502.8754623665791,-562.3516624174316,-452.8641423726836
-500.1143270544843,-440.190245645267,-580.0454363882792
-499.45961711514985,-403.6328523415559,-491.2196094185959
-499.2263723347629,-422.97399954888664,-446.7449537744082
-499.8355011736849,-483.3712115717349,-440.8492406837254
-501.10671742449244,-497.5168126016945,-608.3083753458088
-499.76389395973337,-424.3544370646961,-341.6374520439159
-499.67794745506205,-546.9609288575763,-387.46510204199916
-500.2432603311593,-374.52240154886107,-529.731126069678
-501.30934652248203,-525.4080472923546,-439.7528482367153
-500.8097746147278,-636.2728585023201,-448.0154407488386
-500.5454453751898,-311.33738345847803,-531.7230364409322
-500.5793599001329,-500.4652398408737,-409.51034346677795
-500.8036963472335,-583.1514274729697,-549.0471256853824
-499.1723996944301,-443.03113379006686,-436.757156333941
-502.2104822867603,-515.1234755008985,-465.76223266659366
-499.5129543151669,-305.62139962948515,-484.449041042429
-498.9701890328833,-562.9308158109038,-527.0408320427331
-500.5149291842976,-482.4771527244975,-548.6281542214048
-499.76043498280126,-471.89467774849123,-498.36029720685
-500.27322121823573,-480.116790464591,-330.15373810710787
-501.1220964620066,-514.5712923249228,-387.96670362043284
-499.97931592071274,-641.2166903088464,-521.4867784717342
-499.16778287200265,-624.6963322540764,-583.6433247205246
-500.05601705348437,-459.3097516106077,-666.0868271660707
-499.77185535808724,-786.1592552811153,-536.5137025076544
-498.274040931072,-717.4072017467116,-467.05939534117215
-501.1038436252327,-496.56177382631546,-487.43021010547767
-501.0250687999045,-468.50794717295355,-538.0795508738674
